VERSION 0.7
FIELDS x y z intensity label
SIZE 4 4 4 4 4
TYPE F F F F F
COUNT 1 1 1 1 1
WIDTH 1269
HEIGHT 1
VIEWPOINT 0 0 3 1 0 0 0
POINTS 1269
DATA ascii
-7.10092 -5.43131 -3.01949 0.571547 1
-7.6902 -5.88203 -3.02098 0.369214 1
-8.38762 -6.41547 -3.02719 0.516059 1
-9.33452 -7.13973 -3.0749 0.517172 1
-10.2861 -7.86756 -3.06826 0.657603 1
-11.4514 -8.75886 -3.06341 0.53951 1
-12.8485 -9.82751 -3.04562 0.44083 1
-14.2192 -10.8759 -2.94098 0.170888 1
-16.1948 -12.387 -2.86409 0.14252 1
-19.9008 -15.2216 -2.92681 0.254577 1
-25.9422 -19.8425 -3.04686 0.342211 1
-33.7258 -25.7959 -2.96634 0.0710217 1
-56.6392 -43.3219 -3.31663 0.164004 1
-3.99881 -3.07744 -2.99155 0.300639 4
-4.21962 -3.24737 -2.99153 0.393009 4
-4.46572 -3.43677 -2.99568 0.397124 4
-4.73997 -3.64783 -3.00328 0.418636 4
-5.0431 -3.88112 -3.01204 0.361522 4
-5.36155 -4.12619 -3.01159 0.157147 4
-5.73124 -4.4107 -3.01964 0.34309 4
-6.13687 -4.72287 -3.02373 0.464023 4
-6.57691 -5.06152 -3.01994 0.46388 1
-7.08452 -5.45217 -3.01939 0.0677092 1
-7.67484 -5.90647 -3.02182 0.428325 1
-8.36743 -6.43949 -3.02679 0.32674 1
-9.31659 -7.16994 -3.07599 0.012248 1
-10.2684 -7.90248 -3.06998 0.556843 1
-11.4369 -8.80169 -3.06651 0.332757 1
-12.8221 -9.86773 -3.04628 0.339072 1
-14.1813 -10.9138 -2.93983 0.139903 1
-16.1476 -12.427 -2.86226 0.137568 1
-19.8562 -15.2811 -2.9269 0.0922834 1
-25.8857 -19.9213 -3.04715 0.306457 1
-33.6209 -25.8743 -2.96386 0.561075 1
-3.98967 -3.0893 -2.99156 0.594621 4
-4.20949 -3.25951 -2.99119 0.208335 4
-4.45478 -3.44945 -2.9952 0.380592 4
-4.72785 -3.66089 -3.00247 0.0691019 4
-5.03115 -3.89575 -3.01179 0.175436 4
-5.34906 -4.14191 -3.01146 0.277447 4
-5.71879 -4.4282 -3.01999 0.0330897 4
-6.12384 -4.74185 -3.02424 0.191621 4
-6.56152 -5.08075 -3.01979 0.460163 1
-7.06779 -5.47277 -3.01917 0.0885103 1
-7.65802 -5.9298 -3.02211 0.0292567 1
-8.34718 -6.46343 -3.02639 0.339559 1
-9.29856 -7.20011 -3.07708 0.281652 1
-10.2507 -7.93737 -3.07171 0.390381 1
-11.4221 -8.84445 -3.06958 0.0850032 1
-12.7951 -9.9076 -3.04685 0.18439 1
-14.1433 -10.9515 -2.93868 0.0781411 1
-16.1003 -12.4669 -2.86042 0.549383 1
-19.7875 -15.322 -2.92347 0.291637 1
-25.8241 -19.9963 -3.04688 0.291256 1
-33.4939 -25.9352 -2.95943 0.441312 1
-3.9805 -3.10114 -2.99157 0.298174 4
-4.19932 -3.27162 -2.99085 0.0792734 4
-4.44381 -3.46211 -2.99472 0.449915 4
-4.71568 -3.67391 -3.00166 0.592855 4
-5.01916 -3.91035 -3.01155 0.478957 4
-5.33651 -4.15759 -3.01134 0.452195 4
-5.70629 -4.44568 -3.02034 0.506857 4
-6.11075 -4.76079 -3.02474 0.502414 4
-6.54607 -5.09994 -3.01963 0.26655 4
-7.05101 -5.49333 -3.01895 0.460582 1
-7.64113 -5.95308 -3.02241 0.455415 1
-8.32685 -6.48731 -3.02599 0.107929 1
-9.28042 -7.23023 -3.07816 0.065862 1
-10.2332 -7.97252 -3.07354 0.513301 1
-11.4072 -8.8872 -3.07265 0.268596 1
-12.766 -9.94577 -3.04692 0.5233 1
-14.1051 -10.9891 -2.9375 0.236725 1
-16.0581 -12.5106 -2.8595 0.503912 1
-19.741 -15.3799 -2.92333 0.236693 1
-25.752 -20.063 -3.04539 0.400057 1
-33.3676 -25.9962 -2.95508 0.341719 1
-3.97129 -3.11295 -2.99158 0.241675 4
-4.18912 -3.2837 -2.99052 0.574964 4
-4.43281 -3.47472 -2.99424 0.515514 4
-4.70352 -3.68692 -3.00087 0.347053 4
-5.00713 -3.92491 -3.0113 0.428407 4
-5.32393 -4.17324 -3.01121 0.177923 4
-5.69376 -4.46313 -3.02071 0.597685 4
-6.0976 -4.7797 -3.02524 0.307833 4
-6.53062 -5.11912 -3.0195 0.612152 4
-7.03417 -5.51383 -3.01873 0.109061 1
-7.6242 -5.97634 -3.02271 0.482836 1
-8.30733 -6.51182 -3.0259 0.409756 1
-9.26123 -7.25955 -3.07893 0.517679 1
-10.2155 -8.0076 -3.07536 0.245899 1
-11.3896 -8.9279 -3.07503 0.331704 1
-12.7356 -9.98296 -3.04672 0.539442 1
-14.0657 -11.0256 -2.93611 0.373422 1
-16.0188 -12.5566 -2.85914 0.232687 1
-19.6993 -15.4416 -2.92393 0.222787 1
-25.6868 -20.1349 -3.04472 0.235413 1
-33.2905 -26.0953 -2.9551 0.652776 1
-56.4181 -44.2242 -3.3342 0.164827 1
-3.96204 -3.12473 -2.99158 0.325008 4
-4.17888 -3.29575 -2.99018 0.660975 4
-4.42177 -3.4873 -2.99376 0.458779 4
-4.69173 -3.70022 -3.00034 0.494999 4
-4.99481 -3.93924 -3.01091 0.199126 4
-5.31129 -4.18884 -3.01108 0.34901 4
-5.68117 -4.48055 -3.02107 0.0211641 4
-6.08439 -4.79856 -3.02573 0.161452 4
-6.51517 -5.1383 -3.01939 0.342512 4
-7.01724 -5.53427 -3.0185 0.520961 1
-7.60742 -5.99973 -3.02311 0.269164 1
-8.28824 -6.53666 -3.026 0.554472 1
-9.24017 -7.28742 -3.07911 0.266171 1
-10.1975 -8.04247 -3.07712 0.134899 1
-11.3707 -8.96771 -3.0771 0.531303 1
-12.7051 -10.0201 -3.04653 0.364311 1
-14.0263 -11.0621 -2.93471 0.505489 1
-15.9795 -12.6025 -2.85878 0.0292772 1
-19.6813 -15.522 -2.92809 0.203303 1
-25.6262 -20.2106 -3.04465 0.242121 1
-33.2141 -26.1948 -2.9552 0.490531 1
-56.2867 -44.3914 -3.3342 0.362507 1
-3.95276 -3.13648 -2.99159 0.139227 4
-4.16861 -3.30776 -2.98984 0.0216342 4
-4.41059 -3.49977 -2.99321 0.278311 4
-4.67991 -3.71347 -2.99981 0.461955 4
-4.98291 -3.9539 -3.0108 0.380116 4
-5.29876 -4.20453 -3.01104 0.400566 4
-5.66852 -4.49793 -3.02143 0.529992 4
-6.07112 -4.81739 -3.02623 0.217511 4
-6.49949 -5.1573 -3.01921 0.325084 4
-7.00027 -5.55466 -3.01828 0.599461 4
-7.59057 -6.02306 -3.0235 0.218127 1
-8.26927 -6.5616 -3.02617 0.477815 1
-9.21902 -7.31523 -3.07928 0.462608 1
-10.1798 -8.07758 -3.07898 0.438463 1
-11.3525 -9.00812 -3.07939 0.376321 1
-12.6745 -10.0571 -3.04635 0.424761 1
-13.9892 -11.1003 -2.93383 0.490201 1
-15.9411 -12.6491 -2.85862 0.192644 1
-19.6433 -15.5869 -2.92931 0.55185 1
-25.5591 -20.2809 -3.0438 0.151904 1
-33.1197 -26.2803 -2.95374 0.0605508 1
-3.9435 -3.14826 -2.99164 0.105923 4
-4.15831 -3.31975 -2.98951 0.574651 4
-4.39925 -3.5121 -2.99258 0.0488799 4
-4.66804 -3.72669 -2.99928 0.383699 4
-4.97124 -3.96874 -3.01085 0.474562 4
-5.28671 -4.2206 -3.0113 0.128742 4
-5.65582 -4.51527 -3.02179 0.219368 4
-6.05778 -4.83617 -3.02672 0.0356648 4
-6.48388 -5.17635 -3.01908 0.468758 4
-6.98323 -5.575 -3.01806 0.253626 4
-7.57364 -6.04634 -3.02389 0.350793 1
-8.25021 -6.58648 -3.02634 0.0861029 1
-9.1963 -7.34178 -3.07895 0.232501 1
-10.1624 -8.11306 -3.08099 0.16898 1
-11.3351 -9.04928 -3.08195 0.54602 1
-12.6434 -10.0937 -3.04604 0.161512 1
-13.9536 -11.1397 -2.93328 0.107726 1
-15.9067 -12.699 -2.85919 0.402615 1
-19.6 -15.6475 -2.92975 0.0465792 1
-25.4605 -20.3262 -3.03924 0.202917 1
-32.978 -26.3277 -2.94805 0.230385 1
-3.93424 -3.16003 -2.99172 0.479421 4
-4.14798 -3.3317 -2.98917 0.23253 4
-4.38788 -3.5244 -2.99194 0.0126035 4
-4.65613 -3.73986 -2.99875 0.324082 4
-4.95953 -3.98355 -3.01091 0.180276 4
-5.27461 -4.23663 -3.01155 0.41775 4
-5.64306 -4.53257 -3.02215 0.325618 4
-6.04395 -4.85457 -3.027 0.0749553 4
-6.46822 -5.19535 -3.01895 0.0297084 4
-6.96608 -5.59524 -3.01781 0.00801619 4
-7.55521 -6.06844 -3.02371 0.519238 1
-8.23108 -6.6113 -3.0265 0.136512 1
-9.17156 -7.36671 -3.07798 0.024717 1
-10.1449 -8.14851 -3.083 0.349613 1
-11.3096 -9.08399 -3.08232 0.342194 1
-12.6121 -10.1302 -3.04574 0.657188 1
-13.9202 -11.1809 -2.93324 0.217404 1
-15.8716 -12.7483 -2.85968 0.0800881 1
-19.5389 -15.6938 -2.92756 0.388577 1
-25.3763 -20.3825 -3.03639 0.563151 1
-32.8243 -26.3649 -2.94129 0.334616 1
-3.92494 -3.17177 -2.99179 0.145616 4
-4.13761 -3.34363 -2.98884 0.353187 4
-4.37647 -3.53666 -2.99131 0.0997857 4
-4.64419 -3.753 -2.99822 0.407301 4
-4.94777 -3.99832 -3.01096 0.417321 4
-5.26244 -4.25261 -3.0118 0.18474 4
-5.62991 -4.54956 -3.02232 0.450888 4
-6.02924 -4.87227 -3.02686 0.325147 4
-6.4525 -5.2143 -3.01883 0.0734086 4
-6.94847 -5.6151 -3.01739 0.34535 4
-7.53674 -6.09049 -3.02354 0.121847 4
-8.21187 -6.63606 -3.02667 0.124056 1
-9.14674 -7.39154 -3.077 0.493882 1
-10.1231 -8.18055 -3.08375 0.523175 1
-11.2834 -9.11819 -3.08255 0.0154294 1
-12.5807 -10.1666 -3.04544 0.233262 1
-13.8868 -11.222 -2.9332 0.110488 1
-15.8365 -12.7976 -2.86018 0.212933 1
-19.4741 -15.7372 -2.92485 0.177938 1
-25.3047 -20.4489 -3.03508 0.362296 1
-32.7017 -26.4264 -2.93732 0.130566 1
-3.91561 -3.18348 -2.99187 0.360368 4
-4.12734 -3.35563 -2.9886 0.194394 4
-4.36503 -3.54888 -2.99068 0.352427 4
-4.6322 -3.76609 -2.99768 0.284045 4
-4.93597 -4.01306 -3.01101 0.273635 4
-5.25013 -4.26848 -3.01199 0.26003 4
-5.61556 -4.56559 -3.02188 0.0128668 4
-6.01449 -4.88992 -3.02673 0.217556 4
-6.43672 -5.23321 -3.0187 0.481786 4
-6.93063 -5.63477 -3.01689 0.361222 4
-7.5182 -6.11248 -3.02337 0.328642 4
-8.19289 -6.66102 -3.02695 0.516518 1
-9.12178 -7.41623 -3.07599 0.473016 1
-10.1011 -8.21241 -3.08444 0.375514 1
-11.2569 -9.15211 -3.08271 0.12339 1
-12.5495 -10.203 -3.04519 0.0730116 1
-13.8533 -11.2631 -2.93318 0.529804 1
-15.7985 -12.8446 -2.86019 0.0272002 1
-19.4086 -15.7797 -2.92204 0.206723 1
-25.2393 -20.5202 -3.03452 0.131449 1
-32.6153 -26.517 -2.93662 0.531284 1
-3.90624 -3.19517 -2.99194 0.297236 4
-4.11704 -3.3676 -2.98837 0.424781 4
-4.35356 -3.56106 -2.99004 0.456833 4
-4.62018 -3.77915 -2.99715 0.548973 4
-4.92406 -4.02771 -3.01103 0.591301 4
-5.23776 -4.28431 -3.01217 0.102498 4
-5.60105 -4.58147 -3.02138 0.435458 4
-5.99968 -4.90753 -3.02659 0.488041 4
-6.42088 -5.25206 -3.01857 0.0465292 4
-6.91274 -5.65439 -3.01639 0.258087 4
-7.49959 -6.13441 -3.02319 0.0337417 4
-8.17423 -6.68624 -3.02737 0.539723 1
-9.09675 -7.44083 -3.07498 0.0323786 1
-10.0766 -8.24229 -3.08442 0.460107 1
-11.2302 -9.18594 -3.08287 0.379624 1
-12.5176 -10.239 -3.04482 0.340847 1
-13.8206 -11.3048 -2.93334 0.359981 1
-15.7604 -12.8915 -2.86021 0.321276 1
-19.3366 -15.8167 -2.91825 0.359306 1
-25.1535 -20.5747 -3.03153 0.371735 1
-32.5154 -26.5965 -2.93472 0.454248 1
-49.9842 -40.8854 -3.00352 0.489597 1
-3.89665 -3.20667 -2.99187 0.632901 4
-4.10671 -3.37954 -2.98814 0.176375 4
-4.34205 -3.57321 -2.98941 0.492725 4
-4.60811 -3.79216 -2.99661 0.107298 4
-4.91209 -4.04232 -3.01103 0.262817 4
-5.22535 -4.30011 -3.01236 0.2867 4
-5.58622 -4.59708 -3.02073 0.431972 4
-5.98482 -4.9251 -3.02645 0.352225 4
-6.40498 -5.27087 -3.01844 0.495772 4
-6.8948 -5.67395 -3.0159 0.234803 4
-7.48093 -6.15629 -3.02302 0.265179 4
-8.15549 -6.71142 -3.0278 0.573633 4
-9.07163 -7.46533 -3.07397 0.730717 1
-10.0519 -8.27204 -3.08437 0.303755 1
-11.2013 -9.21791 -3.08242 0.561319 1
-12.4822 -10.272 -3.04362 0.540912 1
-13.7916 -11.3495 -2.93432 0.228624 1
-15.7223 -12.9384 -2.86025 0.295345 1
-19.2649 -15.8537 -2.91452 0.319412 1
-25.0525 -20.6165 -3.02672 0.109759 1
-32.4159 -26.6761 -2.93287 0.293336 1
-49.8886 -41.055 -3.00509 0.488257 1
-3.88699 -3.21812 -2.99178 0.319855 4
-4.0966 -3.39166 -2.98809 0.307874 4
-4.33051 -3.58532 -2.98877 0.13046 4
-4.59613 -3.80524 -2.99615 0.0039522 4
-4.90008 -4.05688 -3.01104 0.175637 4
-5.21288 -4.31586 -3.01255 0.528598 4
-5.57135 -4.61264 -3.02007 0.576744 4
-5.9699 -4.94261 -3.02632 0.540428 4
-6.38903 -5.28962 -3.0183 0.813112 4
-6.87681 -5.69346 -3.01541 0.395072 4
-7.4622 -6.17812 -3.02285 0.492734 4
-8.13703 -6.73683 -3.02835 0.309516 4
-9.0467 -7.48996 -3.07304 0.422257 1
-10.0274 -8.30194 -3.08441 0.179106 1
-11.172 -9.24957 -3.08191 0.640866 1
-12.4469 -10.305 -3.04244 0.529427 1
-13.7626 -11.3944 -2.93533 0.558559 1
-15.688 -12.9885 -2.86101 0.112958 1
-19.1999 -15.896 -2.91181 0.045899 1
-24.9508 -20.6573 -3.02183 0.411398 1
-32.3227 -26.7607 -2.93162 0.416951 1
-49.7577 -41.1954 -3.00455 0.369026 1
-3.8773 -3.22954 -2.99168 0.430399 4
-4.08654 -3.40383 -2.98811 0.630812 4
-4.31893 -3.5974 -2.98814 0.553631 4
-4.58413 -3.81829 -2.9957 0.189755 4
-4.88803 -4.07142 -3.01104 0.332373 4
-5.20037 -4.33158 -3.01273 0.611847 4
-5.55643 -4.62816 -3.01942 0.184018 4
-5.95494 -4.96009 -3.02618 0.286749 4
-6.37358 -5.30879 -3.01843 0.0708009 4
-6.85876 -5.71291 -3.01491 0.259154 4
-7.44345 -6.19992 -3.0227 0.162256 4
-8.11863 -6.76231 -3.02896 0.138351 4
-9.02197 -7.51473 -3.0722 0.186873 1
-10.0063 -8.33462 -3.0855 0.482473 1
-11.1443 -9.28254 -3.08186 0.281642 1
-12.4114 -10.3379 -3.04126 0.534229 1
-13.7337 -11.4393 -2.93639 0.18462 1
-15.6549 -13.0396 -2.86203 0.0183824 1
-19.1357 -15.9388 -2.90922 0.0740836 1
-24.8664 -20.7121 -3.01904 0.257246 1
-32.2398 -26.8537 -2.93131 0.397267 1
-49.5981 -41.3121 -3.00231 0.142899 1
-3.86757 -3.24093 -2.99158 0.275003 4
-4.07645 -3.41597 -2.98813 0.245269 4
-4.30732 -3.60943 -2.98751 0.328538 4
-4.57208 -3.8313 -2.99525 0.110996 4
-4.87593 -4.08592 -3.01105 0.291287 4
-5.18781 -4.34727 -3.01292 0.165297 4
-5.54147 -4.64362 -3.01877 0.685978 4
-5.93993 -4.97752 -3.02605 0.256631 4
-6.35848 -5.32826 -3.01876 0.33456 4
-6.84066 -5.73231 -3.01443 0.44747 4
-7.4247 -6.22172 -3.02257 0.57546 4
-8.10015 -6.78774 -3.02957 0.286189 4
-8.99715 -7.5394 -3.07136 0.350326 4
-9.98504 -8.36723 -3.08659 0.113323 1
-11.1192 -9.31761 -3.08253 0.0814412 1
-12.3759 -10.3707 -3.0401 0.624095 1
-13.7015 -11.4815 -2.93678 0.497517 1
-15.6203 -13.0895 -2.86279 0.364692 1
-19.0801 -15.9887 -2.90798 0.325023 1
-24.7902 -20.7736 -3.01726 0.527113 1
-32.1508 -26.9416 -2.93048 0.20691 1
-49.4565 -41.4434 -3.00117 0.267897 1
-3.85781 -3.25229 -2.99149 0.0570447 4
-4.06632 -3.42807 -2.98815 0.432747 4
-4.29568 -3.62143 -2.98687 0.0263762 4
-4.56 -3.84427 -2.99479 0.397579 4
-4.86381 -4.10039 -3.01107 0.00372567 4
-5.17521 -4.36291 -3.01311 0.366746 4
-5.52647 -4.65904 -3.01811 0.317855 4
-5.92497 -4.99499 -3.02597 0.378354 4
-6.3438 -5.34808 -3.01931 0.187831 4
-6.8231 -5.75215 -3.0142 0.191808 4
-7.40578 -6.24337 -3.0224 0.542873 4
-8.08228 -6.81369 -3.03043 0.0246301 4
-8.97228 -7.564 -3.07052 0.717094 4
-9.96365 -8.39977 -3.08767 0.175063 1
-11.0937 -9.35246 -3.08315 0.551261 1
-12.3392 -10.4025 -3.03865 0.224025 1
-13.6666 -11.5215 -2.93663 0.11406 1
-15.5769 -13.132 -2.86197 0.475881 1
-19.0268 -16.0404 -2.9071 0.577683 1
-24.693 -20.8172 -3.01293 0.248676 1
-32.0605 -27.0283 -2.92954 0.422447 1
-49.3329 -41.5896 -3.00114 0.345002 1
-3.84801 -3.26362 -2.99139 0.439737 4
-4.05616 -3.44016 -2.98818 0.00602371 4
-4.284 -3.63339 -2.98624 0.229804 4
-4.54801 -3.85731 -2.99442 0.350945 4
-4.85207 -4.11519 -3.01135 0.0910853 4
-5.16255 -4.37852 -3.01329 0.188159 4
-5.51143 -4.67442 -3.01746 0.479507 4
-5.91064 -5.013 -3.02623 0.138569 4
-6.32967 -5.36839 -3.02016 0.28993 4
-6.80612 -5.77248 -3.01425 0.208445 4
-7.3856 -6.26396 -3.02173 0.135408 4
-8.06494 -6.84013 -3.03153 0.126171 4
-8.94734 -7.58852 -3.06968 0.432757 4
-9.94163 -8.4318 -3.08859 0.630448 1
-11.066 -9.38542 -3.08318 0.428886 1
-12.3017 -10.4335 -3.03702 0.146903 1
-13.6317 -11.5615 -2.93648 0.391565 1
-15.5335 -13.1744 -2.86116 0.692439 1
-18.9699 -16.089 -2.90569 0.159484 1
-24.613 -20.8751 -3.01073 0.533884 1
-31.9556 -27.1025 -2.92729 0.245957 1
-49.09 -41.6348 -2.99388 0.20468 1
-3.83819 -3.27492 -2.99129 0.135005 4
-4.04596 -3.45221 -2.9882 0.206006 4
-4.27229 -3.64532 -2.98561 0.271816 4
-4.53608 -3.8704 -2.99412 0.292506 4
-4.83945 -4.12924 -3.0111 0.356036 4
-5.14985 -4.3941 -3.01348 0.0825957 4
-5.49634 -4.68974 -3.01681 0.23097 4
-5.89643 -5.03111 -3.02659 0.321341 4
-6.31548 -5.38866 -3.021 0.407715 4
-6.78919 -5.79286 -3.01435 0.570416 4
-7.36536 -6.28447 -3.02107 0.324321 4
-8.04751 -6.86652 -3.03263 0.110258 4
-8.92232 -7.61294 -3.06883 0.0203676 4
-9.91801 -8.46251 -3.08904 0.508254 4
-11.0382 -9.4183 -3.08321 0.540498 1
-12.2641 -10.4643 -3.0354 0.483157 1
-13.5967 -11.6013 -2.93634 0.275371 1
-15.4902 -13.217 -2.8604 0.548015 1
-18.8925 -16.12 -2.90115 0.144731 1
-24.5397 -20.9385 -3.00935 0.370748 1
-31.8653 -27.189 -2.9264 0.0975209 1
-48.956 -41.7716 -2.99325 0.322467 1
-3.82833 -3.28619 -2.9912 0.409599 4
-4.03574 -3.46423 -2.98823 0.273279 4
-4.2606 -3.65725 -2.985 0.535935 4
-4.52411 -3.88344 -2.99381 0.517517 4
-4.82678 -4.14325 -3.01086 0.036818 4
-5.13748 -4.40996 -3.01388 0.137772 4
-5.48112 -4.70493 -3.01611 0.539113 4
-5.88171 -5.04879 -3.02671 0.473619 4
-6.30123 -5.4089 -3.02185 0.352847 4
-6.77228 -5.81325 -3.01449 0.215003 4
-7.34505 -6.30491 -3.0204 0.458752 4
-8.03 -6.89286 -3.03373 0.240325 4
-8.89643 -7.63659 -3.06771 0.191965 4
-9.89352 -8.49249 -3.08925 0.496965 4
-11.0103 -9.45112 -3.08324 0.0260197 1
-12.2265 -10.4951 -3.03378 0.11199 1
-13.5617 -11.6412 -2.93623 0.671202 1
-15.447 -13.2595 -2.85968 0.607308 1
-18.8143 -16.15 -2.89649 0.22143 1
-24.444 -20.9825 -3.00523 0.283072 1
-31.8079 -27.3035 -2.92856 0.525693 1
-48.9607 -42.0273 -3.00115 0.479115 1
-3.81843 -3.29743 -2.9911 0.01733 4
-4.02547 -3.47622 -2.98826 0.291538 4
-4.24903 -3.66928 -2.98452 0.333448 4
-4.5121 -3.89645 -2.9935 0.0171111 4
-4.81407 -4.15722 -3.01061 0.447702 4
-5.12521 -4.42591 -3.01438 0.0141903 4
-5.46583 -4.72006 -3.01539 0.237827 4
-5.86694 -5.06643 -3.02683 0.606546 4
-6.28691 -5.42911 -3.0227 0.50858 4
-6.7553 -5.83358 -3.01463 0.198566 4
-7.32469 -6.32529 -3.01974 0.515831 4
-8.01239 -6.91915 -3.03482 0.247898 4
-8.86956 -7.65937 -3.06627 0.231536 4
-9.86893 -8.52238 -3.08946 0.453078 4
-10.983 -9.4844 -3.08345 0.22941 1
-12.1898 -10.5266 -3.03241 0.332264 1
-13.5284 -11.6825 -2.93652 0.518551 1
-15.4037 -13.302 -2.85895 0.119723 1
-18.7479 -16.1898 -2.89364 0.113162 1
-24.3411 -21.0199 -3.00024 0.316739 1
-31.7823 -27.4458 -2.93369 0.165254 1
-48.621 -41.987 -2.98795 0.154097 1
-3.80851 -3.30864 -2.991 0.506801 4
-4.01518 -3.48819 -2.98828 0.46432 4
-4.2376 -3.68142 -2.98415 0.32749 4
-4.50005 -3.90942 -2.99319 0.0679559 4
-4.80131 -4.17115 -3.01037 0.356856 4
-5.11322 -4.44212 -3.01507 0.145017 4
-5.45082 -4.73541 -3.01485 0.453879 4
-5.85211 -5.08403 -3.02695 0.324727 4
-6.27253 -5.44927 -3.02355 0.566169 4
-6.73826 -5.85387 -3.01476 0.00718288 4
-7.30456 -6.34585 -3.01919 0.379724 4
-7.99458 -6.9453 -3.03587 0.309865 4
-8.84263 -7.68204 -3.06483 0.0598476 4
-9.84422 -8.55218 -3.08965 0.437654 4
-10.9557 -9.51781 -3.08373 0.17332 4
-12.154 -10.5588 -3.0313 0.35138 1
-13.4959 -11.7246 -2.937 0.290306 1
-15.3601 -13.3441 -2.85821 0.202854 1
-18.6817 -16.2297 -2.89084 0.0804563 1
-24.2358 -21.0549 -2.99495 0.058706 1
-31.7653 -27.5962 -2.93967 0.363084 1
-48.3775 -42.028 -2.98064 0.531826 1
-3.79843 -3.31972 -2.99081 0.283967 4
-4.00473 -3.50003 -2.98823 0.213206 4
-4.22614 -3.69353 -2.98379 0.573833 4
-4.48796 -3.92235 -2.99288 0.0289335 4
-4.78851 -4.18503 -3.01012 0.467197 4
-5.10048 -4.45768 -3.01534 0.322072 4
-5.43636 -4.75124 -3.01464 0.303282 4
-5.83722 -5.10157 -3.02707 0.123724 4
-6.25672 -5.4682 -3.02374 0.326472 4
-6.72117 -5.87412 -3.0149 0.18629 4
-7.28537 -6.36722 -3.01906 0.434786 4
-7.97481 -6.96977 -3.0362 0.017881 4
-8.81499 -7.70406 -3.06316 0.172589 4
-9.81949 -8.58197 -3.08987 0.162714 4
-10.9283 -9.55104 -3.08397 0.47957 4
-12.1184 -10.5912 -3.03024 0.448067 4
-13.461 -11.7645 -2.93699 0.0760351 1
-15.3154 -13.3853 -2.85726 0.0195465 1
-18.6203 -16.2736 -2.88881 0.504226 1
-24.1098 -21.0713 -2.9871 0.329306 1
-31.729 -27.7303 -2.94392 0.754224 1
-48.2311 -42.1527 -2.97932 0.343915 1
-3.78823 -3.3307 -2.99056 0.0461862 4
-3.99408 -3.51168 -2.98804 0.0565732 4
-4.21464 -3.7056 -2.98342 0.122163 4
-4.47583 -3.93525 -2.99257 0.186031 4
-4.77567 -4.19888 -3.00987 0.541908 4
-5.08804 -4.47351 -3.01582 0.0182541 4
-5.42187 -4.76702 -3.01443 0.092293 4
-5.82227 -5.11906 -3.02719 0.0942173 4
-6.2408 -5.48705 -3.0239 0.244871 4
-6.70401 -5.89431 -3.01504 0.314551 4
-7.26611 -6.38852 -3.01892 0.427917 4
-7.95463 -6.99388 -3.03641 0.397852 4
-8.787 -7.72572 -3.06139 0.352834 4
-9.79362 -8.61076 -3.08976 0.128394 4
-10.9008 -9.58419 -3.08421 0.593161 4
-12.0827 -10.6234 -3.02919 0.135338 4
-13.4242 -11.8028 -2.93659 0.418289 1
-15.2705 -13.4262 -2.85631 0.10874 1
-18.556 -16.3148 -2.88634 0.326159 1
-23.999 -21.1004 -2.98111 0.442547 1
-31.6765 -27.8507 -2.9467 0.574652 1
-48.1172 -42.3057 -2.98003 0.12007 1
-3.77801 -3.34164 -2.9903 0.375261 4
-3.98339 -3.5233 -2.98786 0.144158 4
-4.20311 -3.71764 -2.98306 0.651299 4
-4.46369 -3.94813 -2.99228 0.00671254 4
-4.76279 -4.21268 -3.00961 0.204376 4
-5.07555 -4.48931 -3.0163 0.342527 4
-5.40733 -4.78277 -3.01423 0.252913 4
-5.80727 -5.13651 -3.0273 0.240652 4
-6.22484 -5.50585 -3.02407 0.415829 4
-6.68798 -5.9155 -3.01571 0.319058 4
-7.24708 -6.41002 -3.0189 0.749816 4
-7.93451 -7.01805 -3.03667 0.470257 4
-8.75895 -7.74727 -3.05961 0.605762 4
-9.76589 -8.6379 -3.08909 0.49789 4
-10.8732 -9.61728 -3.08446 0.03649 4
-12.0474 -10.6559 -3.02825 0.144871 4
-13.3824 -11.8367 -2.93512 0.162658 4
-15.2256 -13.467 -2.85537 0.432388 1
-18.4718 -16.3383 -2.88077 0.664665 1
-23.9018 -21.1411 -2.97682 0.349803 1
-31.6069 -27.9562 -2.94793 0.431424 1
-47.999 -42.455 -2.98049 0.360014 1
-3.7677 -3.3525 -2.99 0.276668 4
-3.97268 -3.53489 -2.98768 0.259803 4
-4.19155 -3.72964 -2.98269 0.354208 4
-4.45159 -3.96103 -2.99203 0.353591 4
-4.74987 -4.22644 -3.00936 0.134632 4
-5.06301 -4.50507 -3.01679 0.543781 4
-5.39275 -4.79847 -3.01402 0.389873 4
-5.79183 -5.15358 -3.02721 0.670367 4
-6.20882 -5.52461 -3.02424 0.651216 4
-6.67233 -5.93705 -3.01659 0.568223 4
-7.22874 -6.43214 -3.0192 0.696381 4
-7.91438 -7.04222 -3.03695 0.366558 4
-8.7326 -7.77028 -3.05845 0.285914 4
-9.73803 -8.66491 -3.0884 0.754798 4
-10.8454 -9.65026 -3.0847 0.439126 4
-12.0126 -10.6888 -3.02745 0.857046 4
-13.3386 -11.8687 -2.93323 0.332092 4
-15.1782 -13.5056 -2.85399 0.582313 1
-18.3736 -16.3489 -2.87301 0.124926 1
-23.8213 -21.1962 -2.97462 0.526098 1
-31.5236 -28.0497 -2.94791 0.217213 1
-47.8771 -42.6011 -2.98076 0.238919 1
-3.75734 -3.36332 -2.98969 0.247928 4
-3.96193 -3.54646 -2.9875 0.298159 4
-4.17995 -3.74161 -2.98233 0.686921 4
-4.43944 -3.97389 -2.99178 0.898635 4
-4.7369 -4.24016 -3.0091 0.28273 4
-5.05042 -4.5208 -3.01727 0.549989 4
-5.37812 -4.81414 -3.01382 0.175494 4
-5.776 -5.17029 -3.02694 0.430444 4
-6.19277 -5.54336 -3.02442 0.395393 4
-6.65661 -5.95855 -3.01746 0.190206 4
-7.21033 -6.45421 -3.0195 0.54895 4
-7.89416 -7.06632 -3.03722 0.16455 4
-8.70619 -7.7932 -3.05729 0.46464 4
-9.71005 -8.69179 -3.08769 0.59953 4
-10.8191 -9.68456 -3.08539 0.448454 4
-11.9771 -10.7211 -3.02652 0.0876119 4
-13.2965 -11.9021 -2.93173 0.554783 4
-15.1296 -13.543 -2.8524 0.07457 4
-18.2902 -16.3722 -2.86756 0.285521 1
-23.7509 -21.2603 -2.97369 0.394534 1
-31.4674 -28.1675 -2.95046 0.176608 1
-47.7543 -42.7465 -2.981 0.586801 1
-3.74694 -3.3741 -2.98937 0.325447 4
-3.95116 -3.55799 -2.98732 0.479107 4
-4.16832 -3.75354 -2.98196 0.531199 4
-4.42725 -3.98671 -2.99152 0.023976 4
-4.72424 -4.25415 -3.00907 0.0526014 4
-5.03778 -4.53649 -3.01775 0.543138 4
-5.36346 -4.82976 -3.01362 0.210605 4
-5.76011 -5.18694 -3.02667 0.144723 4
-6.17671 -5.56208 -3.02463 0.62557 4
-6.64073 -5.97993 -3.0183 0.0702539 4
-7.19186 -6.47622 -3.0198 0.410304 4
-7.87386 -7.09036 -3.03749 0.0474757 4
-8.67971 -7.81603 -3.05612 0.195381 4
-9.68194 -8.71852 -3.08696 0.428584 4
-10.7929 -9.71889 -3.08611 0.496507 4
-11.9416 -10.7533 -3.0256 0.149065 4
-13.2557 -11.9366 -2.93052 0.516447 4
-15.08 -13.5794 -2.85063 0.412371 4
-18.2092 -16.3972 -2.86247 0.473536 1
-23.6771 -21.3211 -2.97236 0.194863 1
-31.4263 -28.2992 -2.95447 0.408774 1
-47.6374 -42.8972 -2.98164 0.473862 1
-3.73652 -3.38485 -2.98906 0.132302 4
-3.94035 -3.5695 -2.98715 0.544453 4
-4.15665 -3.76544 -2.9816 0.215101 4
-4.41502 -3.99949 -2.99127 0.538341 4
-4.71176 -4.26831 -3.00918 0.369783 4
-5.02503 -4.55209 -3.01819 0.619557 4
-5.34881 -4.84539 -3.01346 0.208607 4
-5.74405 -5.20343 -3.02633 0.0859082 4
-6.16059 -5.58077 -3.02483 0.238744 4
-6.62471 -6.00121 -3.0191 0.494827 4
-7.17326 -6.49813 -3.02008 0.350844 4
-7.85308 -7.11397 -3.03761 0.587409 4
-8.65317 -7.83876 -3.05496 0.568556 4
-9.65462 -8.74595 -3.08652 0.568827 4
-10.7665 -9.75316 -3.08683 0.415872 4
-11.9059 -10.7854 -3.02466 0.445675 4
-13.2134 -11.9698 -2.92903 0.580321 4
-15.0311 -13.6164 -2.84901 0.205721 4
-18.1306 -16.4242 -2.85776 0.553584 1
-23.5852 -21.3654 -2.96877 0.402466 1
-31.381 -28.4275 -2.95813 0.350108 1
-47.5211 -43.0486 -2.98235 0.258597 1
-3.72606 -3.39556 -2.98874 0.143238 4
-3.92952 -3.58098 -2.98699 0.384143 4
-4.14495 -3.7773 -2.98124 0.607792 4
-4.40276 -4.01224 -2.99102 0.169388 4
-4.69901 -4.28221 -3.00914 0.1531 4
-5.01185 -4.5673 -3.0184 0.182769 4
-5.33446 -4.86129 -3.01349 0.134859 4
-5.72789 -5.21983 -3.02597 0.48601 4
-6.14437 -5.59937 -3.02501 0.241277 4
-6.60862 -6.02244 -3.0199 0.560241 4
-7.15363 -6.51911 -3.01994 0.243784 4
-7.83255 -7.13781 -3.03785 0.183897 4
-8.62524 -7.86019 -3.05332 0.539662 4
-9.63034 -8.77614 -3.08707 0.575773 4
-10.74 -9.78736 -3.08755 0.611787 4
-11.8696 -10.8168 -3.02358 0.326744 4
-13.1711 -12.0029 -2.92753 0.597541 4
-14.9825 -13.6536 -2.84747 0.276926 4
-18.059 -16.4572 -2.85416 0.333267 1
-23.4856 -21.4024 -2.96421 0.415964 1
-31.3642 -28.5822 -2.96453 0.14307 1
-47.5163 -43.3017 -2.9901 0.322886 1
-3.71557 -3.40625 -2.98843 0.00253891 4
-3.91866 -3.59242 -2.98682 0.587797 4
-4.13322 -3.78912 -2.98088 0.676884 4
-4.3905 -4.02498 -2.99079 0.222282 4
-4.6858 -4.2957 -3.00883 0.0475833 4
-4.99864 -4.5825 -3.01862 0.291135 4
-5.3201 -4.87719 -3.01354 0.237249 4
-5.71169 -5.23618 -3.02561 0.218321 4
-6.12755 -5.61742 -3.02493 0.332875 4
-6.59247 -6.04363 -3.0207 0.551651 4
-7.13406 -6.54014 -3.01986 0.186005 4
-7.81205 -7.16168 -3.03813 0.219687 4
-8.59697 -7.88126 -3.05158 0.297835 4
-9.60675 -8.80697 -3.08787 0.171628 4
-10.7133 -9.82137 -3.08824 0.458849 4
-11.835 -10.8497 -3.02294 0.164778 4
-13.1286 -12.0357 -2.92602 0.544178 4
-14.9361 -13.6927 -2.84636 0.407983 4
-18.0128 -16.5132 -2.85459 0.650663 4
-23.3794 -21.433 -2.95882 0.0541856 1
-31.3127 -28.7059 -2.9677 0.504241 1
-47.2532 -43.3193 -2.98162 0.247026 1
-3.70506 -3.4169 -2.98811 0.0149936 4
-3.90776 -3.60384 -2.98666 0.00410683 4
-4.12173 -3.80116 -2.98071 0.374479 4
-4.3782 -4.03768 -2.99056 0.467933 4
-4.67254 -4.30913 -3.00851 0.368479 4
-4.98561 -4.59786 -3.01898 0.57183 4
-5.3057 -4.89305 -3.0136 0.541055 4
-5.69543 -5.25247 -3.02524 0.438766 4
-6.11068 -5.63543 -3.02485 0.13451 4
-6.57539 -6.06399 -3.02111 0.19981 4
-7.11418 -6.56087 -3.01968 0.103409 4
-7.79175 -7.18575 -3.03852 0.277174 4
-8.56833 -7.90193 -3.04972 0.562325 4
-9.58303 -8.83771 -3.08866 0.20788 4
-10.686 -9.85493 -3.0888 0.326023 4
-11.803 -10.885 -3.02301 0.230667 4
-13.087 -12.0691 -2.9247 0.123715 4
-14.8967 -13.7381 -2.8466 0.488878 4
-17.971 -16.5733 -2.85575 0.447357 4
-23.2574 -21.4486 -2.95143 0.065451 1
-31.2731 -28.8408 -2.97205 0.229496 1
-47.1255 -43.4604 -2.98169 0.217278 1
-3.69451 -3.42751 -2.98779 0.293699 4
-3.89684 -3.61522 -2.98649 0.348524 4
-4.11041 -3.81336 -2.9807 0.519236 4
-4.36585 -4.05034 -2.99032 0.0677954 4
-4.65923 -4.32252 -3.00819 0.501707 4
-4.97253 -4.61318 -3.01934 0.348937 4
-5.29142 -4.90903 -3.01375 0.206912 4
-5.67913 -5.26871 -3.02487 0.043768 4
-6.09377 -5.65339 -3.02477 0.628772 4
-6.55789 -6.08397 -3.02135 0.392137 4
-7.09475 -6.58203 -3.01971 0.50141 4
-7.7708 -7.20923 -3.03868 0.346488 4
-8.53964 -7.92251 -3.04787 0.528649 4
-9.55918 -8.86837 -3.08945 0.151668 4
-10.6584 -9.88813 -3.08928 0.239785 4
-11.7709 -10.9203 -3.02309 0.42327 4
-13.047 -12.1041 -2.92378 0.576185 4
-14.856 -13.7824 -2.84665 0.30104 4
-17.9341 -16.6381 -2.85773 0.577444 4
-23.1403 -21.468 -2.94465 0.390218 4
-31.2904 -29.0291 -2.98187 0.442878 1
-46.9942 -43.5981 -2.98155 0.589588 1
-3.68392 -3.4381 -2.98747 0.175385 4
-3.88588 -3.62658 -2.98633 0.452047 4
-4.09903 -3.82551 -2.98066 0.373118 4
-4.35347 -4.06297 -2.99009 0.318279 4
-4.64588 -4.33587 -3.00787 0.536197 4
-4.9594 -4.62846 -3.01969 0.535981 4
-5.27721 -4.92507 -3.01397 0.391119 4
-5.66277 -5.2849 -3.0245 0.106204 4
-6.07681 -5.67131 -3.02469 0.246924 4
-6.54033 -6.1039 -3.0216 0.353966 4
-7.07586 -6.60369 -3.02 0.256566 4
-7.75006 -7.2329 -3.03895 0.495883 4
-8.51092 -7.94299 -3.04602 0.439314 4
-9.53521 -8.89893 -3.09022 0.452566 4
-10.6306 -9.92126 -3.08976 0.0213204 4
-11.739 -10.9556 -3.02322 0.139652 4
-13.0069 -12.139 -2.92287 0.426623 4
-14.8153 -13.8267 -2.84669 0.023449 4
-17.8972 -16.703 -2.85974 0.652848 4
-23.0467 -21.5088 -2.94084 0.500585 4
-31.3954 -29.3004 -3.00015 0.468505 1
-46.8584 -43.7316 -2.98116 0.280146 1
-3.67331 -3.44865 -2.98716 0.173555 4
-3.8749 -3.6379 -2.98617 0.31208 4
-4.08759 -3.83759 -2.98061 0.0646076 4
-4.34105 -4.07555 -2.98985 0.0373848 4
-4.63249 -4.34917 -3.00754 0.536204 4
-4.94623 -4.64371 -3.02005 0.428892 4
-5.26295 -4.94106 -3.01419 0.527389 4
-5.64616 -5.30083 -3.02402 0.276286 4
-6.0598 -5.68918 -3.02462 0.106204 4
-6.52271 -6.12378 -3.02184 0.20088 4
-7.0569 -6.62529 -3.02029 0.413766 4
-7.72911 -7.25639 -3.03917 0.435179 4
-8.48215 -7.96337 -3.04417 0.101202 4
-9.5098 -8.92817 -3.09056 0.00837884 4
-10.6029 -9.95441 -3.09027 0.254993 4
-11.7073 -10.9913 -3.02344 0.245819 4
-12.9668 -12.1737 -2.92195 0.484045 4
-14.7683 -13.865 -2.84555 0.1232 4
-17.8612 -16.7688 -2.86192 0.72711 4
-22.9387 -21.5358 -2.93521 0.12077 4
-31.4009 -29.4803 -3.00902 0.714662 1
-46.6733 -43.8187 -2.97764 0.223863 1
-3.66267 -3.45917 -2.98684 0.147928 4
-3.86397 -3.64928 -2.98608 0.514049 4
-4.07611 -3.84963 -2.98056 0.194685 4
-4.32859 -4.08809 -2.98962 0.144693 4
-4.61906 -4.36242 -3.00721 0.444026 4
-4.93301 -4.65893 -3.02041 0.426821 4
-5.24865 -4.95702 -3.01441 0.229974 4
-5.62929 -5.31652 -3.02342 0.317503 4
-6.04259 -5.70686 -3.02447 0.446577 4
-6.50503 -6.1436 -3.02208 0.0876224 4
-7.03788 -6.64685 -3.02058 0.0347372 4
-7.70776 -7.27951 -3.03925 0.254795 4
-8.45403 -7.98431 -3.04256 0.324147 4
-9.48345 -8.95654 -3.09063 0.247406 4
-10.5757 -9.98808 -3.09096 0.155334 4
-11.6776 -11.0288 -3.02422 0.406881 4
-12.9302 -12.2118 -2.92187 0.134383 4
-14.717 -13.8993 -2.8436 0.571875 4
-17.8249 -16.8345 -2.8641 0.129923 4
-22.8329 -21.5642 -2.92984 0.889683 4
-31.3407 -29.5994 -3.01166 0.440424 1
-46.4594 -43.8781 -2.97229 0.562876 1
-3.65201 -3.46966 -2.98653 0.196225 4
-3.85315 -3.66076 -2.98611 0.406644 4
-4.06459 -3.86164 -2.98051 0.425113 4
-4.31593 -4.10043 -2.98926 0.0745002 4
-4.60558 -4.37562 -3.00688 0.532188 4
-4.91975 -4.6741 -3.02077 0.139847 4
-5.2343 -4.97295 -3.01463 0.323296 4
-5.61238 -5.33215 -3.02283 0.301886 4
-6.02531 -5.72446 -3.02431 0.105331 4
-6.48703 -6.16314 -3.02221 0.535776 4
-7.01895 -6.66849 -3.02093 0.617532 4
-7.68647 -7.30269 -3.03939 0.684994 4
-8.43009 -8.00917 -3.04249 0.102241 4
-9.4566 -8.98443 -3.09055 0.725404 4
-10.5484 -10.0217 -3.09168 0.499842 4
-11.6485 -11.0669 -3.02517 0.768486 4
-12.8943 -12.2505 -2.92194 0.534241 4
-14.6655 -13.9332 -2.84162 0.224328 4
-17.7896 -16.9014 -2.86648 0.10133 4
-22.7203 -21.5858 -2.9236 0.363023 4
-31.3133 -29.7498 -3.01749 0.600335 4
-46.2772 -43.9666 -2.96897 0.195063 1
-3.64135 -3.48016 -2.98624 0.305435 4
-3.84231 -3.67222 -2.98614 0.178675 4
-4.05304 -3.87362 -2.98045 0.0508881 4
-4.30306 -4.11258 -2.98879 0.238519 4
-4.59205 -4.38877 -3.00654 0.318919 4
-4.90644 -4.68925 -3.02113 0.629654 4
-5.2199 -4.98883 -3.01485 0.358376 4
-5.5949 -5.34723 -3.02195 0.150744 4
-6.00797 -5.74201 -3.02415 0.24696 4
-6.46887 -6.18251 -3.02228 0.126668 4
-6.99998 -6.69011 -3.0213 0.435143 4
-7.66519 -7.32588 -3.03956 0.518045 4
-8.40699 -8.03484 -3.04275 0.665235 4
-9.42964 -9.01222 -3.09047 0.191896 4
-10.5223 -10.0565 -3.09277 0.351898 4
-11.6192 -11.1049 -3.02612 0.54815 4
-12.8584 -12.2892 -2.92208 0.189795 4
-14.6126 -13.9658 -2.83941 0.390661 4
-17.7544 -16.9685 -2.86891 0.120876 4
-22.6498 -21.6472 -2.92279 0.461458 4
-31.2712 -29.8869 -3.02197 0.395296 4
-46.1111 -44.0699 -2.96669 0.56819 1
-3.63066 -3.49062 -2.98596 0.0144913 4
-3.83143 -3.68365 -2.98617 0.24944 4
-4.04145 -3.88556 -2.9804 0.228516 4
-4.29016 -4.12468 -2.98832 0.198892 4
-4.5782 -4.40161 -3.00601 0.338808 4
-4.8931 -4.70437 -3.0215 0.39873 4
-5.20541 -5.00462 -3.01505 0.618279 4
-5.5771 -5.36198 -3.02091 0.370607 4
-5.99106 -5.75997 -3.02422 0.0322268 4
-6.45001 -6.20122 -3.02206 0.546277 4
-6.98094 -6.71167 -3.02167 0.316426 4
-7.64384 -7.349 -3.03973 0.495569 4
-8.3841 -8.06071 -3.04311 0.517547 4
-9.40242 -9.03975 -3.09033 0.030076 4
-10.4962 -10.0913 -3.09386 0.947492 4
-11.5895 -11.1425 -3.02698 0.128561 4
-12.8225 -12.3279 -2.92222 0.359845 4
-14.5551 -13.9937 -2.83629 0.468797 4
-17.7038 -17.0209 -2.86887 0.476223 4
-22.5979 -21.7263 -2.9244 0.73214 4
-31.1884 -29.9854 -3.02256 0.268892 4
-45.9504 -44.178 -2.96477 0.586568 1
-3.62002 -3.50113 -2.98575 0.463785 4
-3.82053 -3.69505 -2.98621 0.0721795 4
-4.02982 -3.89747 -2.98034 0.256003 4
-4.27722 -4.13674 -2.98785 0.383808 4
-4.56413 -4.41423 -3.00536 0.716341 4
-4.87976 -4.71949 -3.0219 0.0297252 4
-5.19075 -5.02026 -3.01517 0.675741 4
-5.55926 -5.37667 -3.01988 0.471045 4
-5.97424 -5.77802 -3.02438 0.619914 4
-6.43037 -6.21916 -3.02148 0.641251 4
-6.96184 -6.73319 -3.02204 0.171425 4
-7.62241 -7.37206 -3.0399 0.00631698 4
-8.36055 -8.08595 -3.04326 0.290927 4
-9.37168 -9.06388 -3.08905 0.0908593 4
-10.4696 -10.1257 -3.09488 0.360007 4
-11.5601 -11.1804 -3.02796 0.45563 4
-12.7857 -12.3658 -2.92218 0.498725 4
-14.4967 -14.0206 -2.83301 0.208583 4
-17.6496 -17.0699 -2.8683 0.381269 4
-22.5402 -21.7999 -2.92529 0.288736 4
-31.0932 -30.072 -3.02197 0.108753 4
-45.7897 -44.2858 -2.96288 0.485554 4
-3.60942 -3.51166 -2.98558 0.235008 4
-3.80959 -3.70641 -2.98624 0.555683 4
-4.01816 -3.90933 -2.98028 0.0171927 4
-4.26425 -4.14876 -2.98738 0.499237 4
-4.55012 -4.42688 -3.00477 0.449207 4
-4.86637 -4.73458 -3.0223 0.177567 4
-5.17604 -5.03586 -3.0153 0.206983 4
-5.54138 -5.3913 -3.01885 0.648382 4
-5.95737 -5.79602 -3.02453 0.504536 4
-6.41067 -6.23705 -3.02091 0.0715197 4
-6.94244 -6.75442 -3.02231 0.107985 4
-7.60091 -7.39505 -3.04006 0.236773 4
-8.33721 -8.11141 -3.04351 0.662583 4
-9.33966 -9.08671 -3.08737 0.177658 4
-10.4429 -10.1601 -3.09588 0.0697756 4
-11.5309 -11.2186 -3.02901 0.361464 4
-12.7485 -12.4032 -2.92208 0.404984 4
-14.4458 -14.0545 -2.83119 0.591899 4
-17.5975 -17.1209 -2.86806 0.336377 4
-22.4846 -21.8756 -2.92649 0.306572 4
-30.9972 -30.1577 -3.02133 0.0746553 4
-45.6541 -44.4177 -2.96262 0.413228 4
-3.59878 -3.52217 -2.98542 0.170143 4
-3.79845 -3.71759 -2.98615 0.131263 4
-4.00646 -3.92117 -2.98023 0.0720867 4
-4.25127 -4.16076 -2.98692 0.101209 4
-4.53621 -4.43964 -3.00428 0.329735 4
-4.85294 -4.74963 -3.0227 0.335365 4
-5.16129 -5.05141 -3.01543 0.529061 4
-5.52346 -5.40587 -3.01781 0.0123979 4
-5.94045 -5.81398 -3.02469 0.327262 4
-6.39093 -6.25487 -3.02035 0.302795 4
-6.92259 -6.77521 -3.0224 0.564478 4
-7.57978 -7.41841 -3.0404 0.317147 4
-8.31378 -8.13678 -3.04376 0.587286 4
-9.30689 -9.10875 -3.08546 0.0799735 4
-10.4161 -10.1943 -3.09689 0.41611 4
-11.5009 -11.2561 -3.0299 0.372141 4
-12.7112 -12.4406 -2.92198 0.481681 4
-14.3945 -14.0881 -2.82933 0.491907 4
-17.5983 -17.2237 -2.87652 0.0748468 4
-22.4237 -21.9463 -2.92703 0.239762 4
-30.8981 -30.2403 -3.0204 0.0584605 4
-45.5135 -44.5445 -2.96206 0.383564 4
-3.58811 -3.53264 -2.98525 0.404269 4
-3.78711 -3.72855 -2.98592 0.411697 4
-3.99473 -3.93296 -2.98017 0.410126 4
-4.2383 -4.17277 -2.9865 0.0674553 4
-4.52227 -4.45235 -3.00378 0.0662629 4
-4.83855 -4.76374 -3.02253 0.260386 4
-5.14654 -5.06696 -3.01558 0.279398 4
-5.5055 -5.42037 -3.01678 0.0726662 4
-5.92348 -5.83189 -3.02485 0.243278 4
-6.37114 -6.27263 -3.01978 0.697955 4
-6.90264 -6.79591 -3.02248 0.465292 4
-7.55869 -7.44182 -3.04079 0.182021 4
-8.29009 -8.16191 -3.04394 0.225588 4
-9.27405 -9.13066 -3.08355 0.555847 4
-10.389 -10.2284 -3.09785 0.828485 4
-11.4708 -11.2935 -3.03078 0.434082 4
-12.6738 -12.4779 -2.92189 0.0226528 4
-14.3459 -14.1241 -2.828 0.133072 4
-17.5339 -17.2628 -2.87436 0.368568 4
-22.3667 -22.0208 -2.9281 0.476892 4
-30.8024 -30.3262 -3.01983 0.108155 4
-45.4247 -44.7224 -2.96491 0.499591 4
-3.57741 -3.54307 -2.98509 0.291521 4
-3.77573 -3.73949 -2.98568 0.385599 4
-3.98296 -3.94473 -2.98011 0.557366 4
-4.2253 -4.18474 -2.98607 0.252757 4
-4.50829 -4.46501 -3.00328 0.112592 4
-4.82403 -4.77772 -3.0223 0.315145 4
-5.13186 -5.08259 -3.01581 0.655389 4
-5.4875 -5.43482 -3.01574 0.0383765 4
-5.90645 -5.84975 -3.02501 0.231368 4
-6.35164 -6.29066 -3.01937 0.592434 4
-6.88203 -6.81596 -3.0223 0.298459 4
-7.53755 -7.46519 -3.04118 0.268449 4
-8.2661 -8.18675 -3.04404 0.076947 4
-9.24156 -9.15285 -3.08176 0.0856544 4
-10.36 -10.2606 -3.09828 0.371109 4
-11.4391 -11.3293 -3.03128 0.347899 4
-12.6361 -12.5148 -2.92175 0.503039 4
-14.3011 -14.1638 -2.82744 0.803276 4
-17.5084 -17.3403 -2.8786 0.282753 4
-22.3078 -22.0936 -2.92896 0.676499 4
-30.709 -30.4142 -3.01951 0.415683 4
-45.3799 -44.9443 -2.97068 0.192464 4
-3.56668 -3.55348 -2.98492 0.556947 4
-3.76432 -3.75038 -2.98545 0.321518 4
-3.97128 -3.95658 -2.98014 0.101297 4
-4.21226 -4.19666 -2.98565 0.333546 4
-4.49426 -4.47762 -3.00278 0.0611196 4
-4.80947 -4.79167 -3.02208 0.200098 4
-5.11714 -5.09819 -3.01603 0.61734 4
-5.46932 -5.44907 -3.01462 0.528624 4
-5.88803 -5.86623 -3.02448 0.162799 4
-6.33281 -6.30936 -3.01931 0.354592 4
-6.86136 -6.83596 -3.02213 0.493004 4
-7.51634 -7.48851 -3.04158 0.154539 4
-8.24204 -8.21152 -3.04414 0.222734 4
-9.20936 -9.17526 -3.08009 0.06174 4
-10.329 -10.2907 -3.09811 0.20375 4
-11.4059 -11.3637 -3.03141 0.443575 4
-12.5984 -12.5518 -2.92163 0.0766072 4
-14.2585 -14.2057 -2.82734 0.0485899 4
-17.4846 -17.4199 -2.88318 0.347761 4
-22.2385 -22.1561 -2.92848 0.432269 4
-30.6303 -30.5169 -3.02066 0.072461 4
-45.2696 -45.102 -2.97221 0.561608 4
-3.55592 -3.56385 -2.98475 0.306991 4
-3.75289 -3.76125 -2.98522 0.0838805 4
-3.95961 -3.96843 -2.98021 0.258149 4
-4.19919 -4.20855 -2.98522 0.496628 4
-4.4802 -4.49019 -3.00228 0.39477 4
-4.79488 -4.80556 -3.02186 0.350639 4
-5.10237 -5.11374 -3.01626 0.0548902 4
-5.45145 -5.4636 -3.0137 0.0574755 4
-5.86948 -5.88256 -3.0239 0.458575 4
-6.31393 -6.328 -3.01925 0.037709 4
-6.84064 -6.85589 -3.02195 0.508386 4
-7.49506 -7.51177 -3.04198 0.0275901 4
-8.2179 -8.23622 -3.04425 0.0669872 4
-9.17748 -9.19793 -3.07855 0.174453 4
-10.2978 -10.3208 -3.09794 0.440844 4
-11.3727 -11.398 -3.03156 0.3791 4
-12.5608 -12.5888 -2.92156 0.301798 4
-14.2157 -14.2474 -2.82723 0.595177 4
-17.4509 -17.4898 -2.88617 0.380202 4
-22.1621 -22.2115 -2.92709 0.387575 4
-30.5539 -30.622 -3.02208 0.0977632 4
-45.1241 -45.2246 -2.97145 0.553573 4
-3.54513 -3.57418 -2.98458 0.5682 4
-3.74142 -3.77208 -2.98499 0.449569 4
-3.94792 -3.98027 -2.98029 0.41269 4
-4.18608 -4.22039 -2.9848 0.252357 4
-4.4661 -4.50271 -3.00177 0.680303 4
-4.78023 -4.81941 -3.02163 0.0396448 4
-5.08756 -5.12925 -3.01649 0.267767 4
-5.43468 -5.47922 -3.0134 0.254639 4
-5.85076 -5.89871 -3.02326 0.538215 4
-6.29505 -6.34664 -3.01921 0.222757 4
-6.81986 -6.87576 -3.02177 0.541509 4
-7.47371 -7.53496 -3.04237 0.419209 4
-8.19369 -8.26084 -3.04435 0.0310606 4
-9.14627 -9.22123 -3.07724 0.292027 4
-10.2666 -10.3507 -3.09777 0.368299 4
-11.3394 -11.4323 -3.0317 0.532171 4
-12.5228 -12.6254 -2.92141 0.432094 4
-14.1726 -14.2887 -2.82707 0.199265 4
-17.4109 -17.5536 -2.88816 0.290301 4
-22.0971 -22.2782 -2.92722 0.154511 4
-30.4783 -30.7281 -3.02361 0.410519 4
-44.9674 -45.3359 -2.96998 0.543895 4
-3.5343 -3.58449 -2.98442 0.00475511 4
-3.72992 -3.78288 -2.98476 0.34731 4
-3.93631 -3.9922 -2.98046 0.264886 4
-4.17294 -4.23219 -2.98437 0.0618942 4
-4.45197 -4.51518 -3.00126 0.53492 4
-4.76555 -4.83321 -3.0214 0.501704 4
-5.0727 -5.14473 -3.01673 0.182621 4
-5.41787 -5.49479 -3.01311 0.0921779 4
-5.83181 -5.91461 -3.02253 0.477608 4
-6.27722 -6.36635 -3.01971 0.66359 4
-6.79922 -6.89576 -3.02168 0.290231 4
-7.45247 -7.55828 -3.04285 0.465448 4
-8.16941 -8.2854 -3.04445 0.232443 4
-9.11499 -9.24441 -3.07594 0.124782 4
-10.235 -10.3803 -3.09753 0.0378337 4
-11.3038 -11.4643 -3.03129 0.134152 4
-12.4837 -12.661 -2.92105 0.371135 4
-14.1232 -14.3237 -2.82569 0.301498 4
-17.3699 -17.6165 -2.89002 0.461776 4
-22.0458 -22.3588 -2.92922 0.717068 4
-30.3898 -30.8213 -3.02389 0.269521 4
-44.8404 -45.4771 -2.97049 0.124558 4
-3.52345 -3.59475 -2.98425 0.257136 4
-3.71839 -3.79364 -2.98453 0.0278931 4
-3.92467 -4.00409 -2.98063 0.140278 4
-4.15977 -4.24395 -2.98394 0.711473 4
-4.43779 -4.5276 -3.00075 0.523943 4
-4.75078 -4.84693 -3.02115 0.433935 4
-5.05809 -5.16045 -3.01713 0.357375 4
-5.40101 -5.51031 -3.01282 0.254618 4
-5.81282 -5.93046 -3.0218 0.564717 4
-6.25958 -6.38626 -3.02033 0.0665844 4
-6.77933 -6.91652 -3.02195 0.489985 4
-7.4315 -7.58189 -3.04346 0.382548 4
-8.14313 -8.30793 -3.04383 0.72832 4
-9.08365 -9.26748 -3.07463 0.36874 4
-10.2027 -10.4092 -3.09708 0.537762 4
-11.2683 -11.4963 -3.03089 0.422241 4
-12.4443 -12.6961 -2.92063 0.0485795 4
-14.0731 -14.3579 -2.82419 0.657057 4
-17.3269 -17.6776 -2.89158 0.401617 4
-21.9901 -22.4351 -2.93065 0.43793 4
-30.2948 -30.9079 -3.02356 0.247627 4
-44.6848 -45.5891 -2.96914 0.525961 4
-3.51256 -3.60499 -2.98407 0.00226599 4
-3.70674 -3.80428 -2.98423 0.148157 4
-3.91299 -4.01595 -2.98079 0.223778 4
-4.14686 -4.25598 -2.98373 0.46233 4
-4.42358 -4.53997 -3.00024 0.237623 4
-4.73584 -4.86045 -3.0208 0.0823145 4
-5.04357 -5.17628 -3.01762 0.39285 4
-5.38411 -5.52578 -3.01253 0.393952 4
-5.79379 -5.94624 -3.02107 0.131073 4
-6.24188 -6.40612 -3.02095 0.521595 4
-6.75937 -6.93723 -3.02222 0.583413 4
-7.41045 -7.60544 -3.04407 0.362073 4
-8.11575 -8.3293 -3.04282 0.0498727 4
-9.05296 -9.29117 -3.07356 0.490984 4
-10.1701 -10.4377 -3.09657 0.532462 4
-11.2327 -11.5282 -3.0305 0.437846 4
-12.4047 -12.7311 -2.92021 0.625493 4
-14.023 -14.392 -2.82269 0.351841 4
-17.2822 -17.7369 -2.89289 0.26841 4
-21.9224 -22.4992 -2.93051 0.395201 4
-30.1821 -30.9763 -3.02147 0.204908 4
-44.5497 -45.7219 -2.96916 0.215526 4
-3.50156 -3.6151 -2.98383 0.0707895 4
-3.69505 -3.81486 -2.98392 0.104894 4
-3.90127 -4.02777 -2.98096 0.259726 4
-4.13393 -4.26798 -2.98353 0.166916 4
-4.40962 -4.55261 -2.99993 0.252167 4
-4.72086 -4.87394 -3.02046 0.0336761 4
-5.02901 -5.19207 -3.01811 0.328236 4
-5.36717 -5.5412 -3.01224 0.0252457 4
-5.77472 -5.96197 -3.02033 0.50515 4
-6.22412 -6.42594 -3.02157 0.064917 4
-6.73972 -6.95826 -3.02265 0.69795 4
-7.38915 -7.62874 -3.04461 0.251265 4
-8.08835 -8.35062 -3.04183 0.422946 4
-9.0241 -9.31671 -3.07314 0.2018 4
-10.1374 -10.4661 -3.09606 0.314204 4
-11.197 -11.5601 -3.03012 0.560073 4
-12.3652 -12.7661 -2.9198 0.329223 4
-13.9769 -14.4301 -2.822 0.49589 4
-17.2238 -17.7823 -2.89193 0.305897 4
-21.8529 -22.5615 -2.93016 0.113414 4
-30.0557 -31.0303 -3.01802 0.278355 4
-44.4238 -45.8643 -2.96983 0.460078 1
-3.4903 -3.62494 -2.98339 0.217496 4
-3.68333 -3.82542 -2.98361 0.293862 4
-3.88951 -4.03955 -2.98113 0.0816006 4
-4.12097 -4.27994 -2.98333 0.163055 4
-4.39557 -4.56514 -2.99957 0.211059 4
-4.70583 -4.88737 -3.02012 0.387958 4
-5.01439 -5.20783 -3.01861 0.0324403 4
-5.35019 -5.55658 -3.01195 0.00670702 4
-5.75557 -5.97759 -3.01958 0.547488 4
-6.20629 -6.44571 -3.02219 0.586091 4
-6.72058 -6.97984 -3.02335 0.262131 4
-7.36758 -7.65179 -3.04506 0.481671 4
-8.06089 -8.37185 -3.04083 0.316775 4
-8.99506 -9.34206 -3.07268 0.490027 4
-10.1047 -10.4945 -3.09557 0.036602 4
-11.1612 -11.5917 -3.02972 0.162495 4
-12.3218 -12.7972 -2.91852 0.59556 4
-13.9316 -14.469 -2.82152 0.501986 4
-17.1656 -17.8278 -2.89104 0.566164 4
-21.7913 -22.6319 -2.93089 0.313839 4
-29.9292 -31.0838 -3.01457 0.169059 1
-44.2921 -46.0007 -2.97014 0.463569 1
-3.47901 -3.63475 -2.98295 0.00977881 4
-3.67158 -3.83594 -2.98331 0.48802 4
-3.87772 -4.0513 -2.98129 0.3527 4
-4.10797 -4.29186 -2.98313 0.571311 4
-4.3814 -4.57753 -2.99916 0.456599 4
-4.69039 -4.90035 -3.01953 0.286694 4
-4.9996 -5.22341 -3.01902 0.131736 4
-5.33316 -5.5719 -3.01166 0.229327 4
-5.73599 -5.99276 -3.01863 0.516574 4
-6.18735 -6.46432 -3.0223 0.631039 4
-6.70138 -7.00137 -3.02404 0.564161 4
-7.34593 -7.67477 -3.04552 0.0996377 4
-8.03338 -8.39299 -3.03984 0.157956 4
-8.96527 -9.3666 -3.07199 0.439621 4
-10.072 -10.5229 -3.09512 0.381977 4
-11.1263 -11.6244 -3.02961 0.501938 4
-12.2759 -12.8254 -2.91664 0.224382 4
-13.8863 -14.5079 -2.82105 0.321382 4
-17.1128 -17.8788 -2.89106 0.621664 4
-21.7315 -22.7043 -2.9319 0.528217 4
-29.8125 -31.1471 -3.01211 0.694076 1
-44.1847 -46.1626 -2.97211 0.218963 1
-3.46769 -3.64452 -2.9825 0.0220702 4
-3.6598 -3.84642 -2.983 0.130476 4
-3.86589 -4.06302 -2.98145 0.140457 4
-4.09525 -4.30407 -2.98315 0.242195 4
-4.36718 -4.58987 -2.99874 0.256446 4
-4.67491 -4.91329 -3.01893 0.504952 4
-4.98378 -5.23791 -3.01884 0.0251613 4
-5.31609 -5.58717 -3.01137 0.0186158 4
-5.71638 -6.00786 -3.01768 0.465734 4
-6.1679 -6.48241 -3.02218 0.579489 4
-6.68212 -7.02285 -3.02474 0.263374 4
-7.3242 -7.69768 -3.04597 0.441834 4
-8.00603 -8.41427 -3.03893 0.263421 4
-8.93542 -9.39105 -3.07129 0.485753 4
-10.0401 -10.5521 -3.09493 0.473934 4
-11.0913 -11.6569 -3.02949 0.39895 4
-12.2299 -12.8535 -2.91476 0.486959 4
-13.8399 -14.5456 -2.82038 0.0595148 4
-17.0664 -17.9367 -2.89221 0.152707 4
-21.6534 -22.7576 -2.93047 0.345995 4
-29.7147 -31.2299 -3.01158 0.225674 1
-44.0919 -46.3402 -2.97511 0.255439 1
-3.45621 -3.65411 -2.98195 0.260086 4
-3.64793 -3.8568 -2.98264 0.0856313 4
-3.85402 -4.0747 -2.98162 0.327785 4
-4.0827 -4.31646 -2.98333 0.18616 4
-4.35293 -4.60216 -2.99832 0.112763 4
-4.65939 -4.92617 -3.01834 0.156394 4
-4.96792 -5.25237 -3.01866 0.551755 4
-5.29918 -5.6026 -3.0112 0.0821168 4
-5.69672 -6.0229 -3.01673 0.0120707 4
-6.14853 -6.50057 -3.02213 0.54467 4
-6.66278 -7.04427 -3.02544 0.356538 4
-7.30202 -7.72011 -3.04626 0.305666 4
-7.97987 -8.43677 -3.03848 0.381237 4
-8.90483 -9.4147 -3.07037 0.299176 4
-10.011 -10.5842 -3.09562 0.397757 4
-11.0563 -11.6893 -3.02938 0.0508513 4
-12.1856 -12.8833 -2.9133 0.482489 4
-13.7927 -14.5824 -2.81957 0.340542 4
-17.0245 -17.9993 -2.89416 0.125433 4
-21.574 -22.8093 -2.92887 0.451819 1
-29.6245 -31.3207 -3.01185 0.474848 1
-44.0362 -46.5576 -2.98066 0.511836 1
-3.4447 -3.66365 -2.98138 0.426676 4
-3.63597 -3.86709 -2.98223 0.0558809 4
-3.84212 -4.08634 -2.98178 0.684095 4
-4.07011 -4.32882 -2.98351 0.247107 4
-4.33863 -4.61441 -2.99789 0.30127 4
-4.64383 -4.93901 -3.01774 0.59508 4
-4.95201 -5.26677 -3.01848 0.302618 4
-5.28186 -5.61759 -3.01082 0.199581 4
-5.67703 -6.03788 -3.01578 0.4647 4
-6.12995 -6.51959 -3.0225 0.115821 4
-6.64304 -7.0653 -3.02599 0.422509 4
-7.27971 -7.74243 -3.04653 0.405609 4
-7.95357 -8.45912 -3.03802 0.135492 4
-8.87129 -9.43517 -3.06845 0.267024 4
-9.98174 -10.6162 -3.09631 0.251449 4
-11.0212 -11.7217 -3.02928 0.0962761 4
-12.142 -12.9138 -2.91205 0.69241 4
-13.7497 -14.6237 -2.81965 0.126123 4
-16.9796 -18.0589 -2.89562 0.206305 4
-21.5004 -22.867 -2.92807 0.308418 1
-29.5442 -31.4221 -3.01315 0.0607974 1
-43.9613 -46.7555 -2.98497 0.279471 1
-3.43315 -3.67316 -2.98081 0.237136 4
-3.62399 -3.87734 -2.98183 0.295517 4
-3.83019 -4.09794 -2.98194 0.2613 4
-4.05748 -4.34114 -2.98368 0.0347084 4
-4.3243 -4.6266 -2.99746 0.286819 4
-4.62824 -4.95179 -3.01715 0.155999 4
-4.93606 -5.28113 -3.0183 0.105932 4
-5.26473 -5.63278 -3.01057 0.183178 4
-5.65771 -6.05322 -3.01504 0.0148522 4
-6.11131 -6.53853 -3.02286 0.0564144 4
-6.62257 -7.08554 -3.02623 0.0567401 4
-7.25733 -7.76468 -3.04679 0.193502 4
-7.92721 -8.48138 -3.03755 0.00843369 4
-8.8377 -9.45553 -3.06652 0.0546005 4
-9.95242 -10.6482 -3.097 0.247976 4
-10.9854 -11.7534 -3.02904 0.367144 4
-12.0993 -12.9451 -2.911 0.715182 4
-13.7068 -14.665 -2.81976 0.357775 4
-16.927 -18.1103 -2.89579 0.559165 4
-21.4345 -22.9329 -2.92836 0.314513 1
-29.476 -31.5366 -3.01573 0.352011 1
-43.9149 -46.9849 -2.99128 0.757923 1
-3.42158 -3.68263 -2.98024 0.214236 4
-3.61198 -3.88755 -2.98143 0.101988 4
-3.81814 -4.10944 -2.98205 0.63146 4
-4.04482 -4.35342 -2.98386 0.300189 4
-4.30995 -4.63877 -2.99704 0.51035 4
-4.61261 -4.96452 -3.01655 0.444284 4
-4.92007 -5.29544 -3.01812 0.586876 4
-5.24757 -5.64793 -3.01033 0.117855 4
-5.63854 -6.06872 -3.01441 0.517484 4
-6.0926 -6.55743 -3.02322 0.0890378 4
-6.60234 -7.10606 -3.02661 0.166098 4
-7.2351 -7.78709 -3.04715 0.601044 4
-7.90079 -8.50357 -3.03709 0.292764 4
-8.80407 -9.47577 -3.0646 0.684726 4
-9.92017 -10.677 -3.09681 0.0408784 4
-10.95 -11.7854 -3.02889 0.263483 4
-12.0589 -12.9789 -2.91052 0.0949741 4
-13.6602 -14.7023 -2.81913 0.529604 4
-16.8748 -18.1622 -2.89607 0.354068 4
-21.3685 -22.9988 -2.92866 0.0567645 1
-29.4116 -31.6556 -3.01874 0.342162 1
-43.7694 -47.1087 -2.99088 0.309398 1
-3.40998 -3.69206 -2.97967 0.417544 4
-3.59994 -3.89773 -2.98103 0.340375 4
-3.80604 -4.12088 -2.98214 0.335322 4
-4.03212 -4.36566 -2.98404 0.477904 4
-4.29558 -4.65091 -2.99664 0.26831 4
-4.59694 -4.9772 -3.01595 0.214067 4
-4.90403 -5.3097 -3.01794 0.261628 4
-5.23036 -5.66302 -3.01009 0.163242 4
-5.61933 -6.08416 -3.01378 0.104421 4
-6.07383 -6.57626 -3.02358 0.365037 4
