VERSION 0.7
FIELDS x y z intensity label
SIZE 4 4 4 4 4
TYPE F F F F F
COUNT 1 1 1 1 1
WIDTH 1211
HEIGHT 1
VIEWPOINT -0.0369044 -0.032012 3.05177 0.923818 0.00384325 -0.0115119 0.38264
POINTS 1211
DATA ascii
12.6092 -13.5735 -3.02699 1.97168e-05 1
7.02905 -7.47414 -2.90333 0.00037474 1
7.27149 -7.73193 -2.90335 0.000325087 1
7.56407 -8.04304 -2.91653 0.00027123 1
7.85772 -8.35528 -2.92258 0.000228031 1
8.17808 -8.69593 -2.93069 0.000178599 1
8.50932 -9.04814 -2.93435 0.000160178 1
8.89211 -9.45518 -2.94662 0.000130963 1
9.28689 -9.87495 -2.9529 0.000106089 1
9.74455 -10.3616 -2.96823 8.69127e-05 1
10.751 -11.4318 -2.9891 4.93037e-05 1
11.3173 -12.0339 -2.99692 4.42323e-05 1
11.9629 -12.7204 -3.01022 3.07254e-05 1
12.6797 -13.4826 -3.024 1.94856e-05 1
13.2522 -14.0914 -2.98692 4.0547e-05 2
7.05811 -7.41337 -2.89649 0.000372233 1
7.32927 -7.69817 -2.9075 0.000322998 1
7.60324 -7.98594 -2.91268 0.000272946 1
7.90285 -8.30062 -2.92037 0.000226887 1
8.21476 -8.62823 -2.92481 0.000185991 1
8.57269 -9.00417 -2.93709 0.000158703 1
8.95159 -9.40214 -2.94716 0.000128884 1
9.34822 -9.81875 -2.95319 0.000103403 1
9.80061 -10.2939 -2.96601 8.48094e-05 1
10.2881 -10.8059 -2.97748 6.88406e-05 1
10.8092 -11.3533 -2.98585 5.2531e-05 1
11.3834 -11.9564 -2.99494 4.30395e-05 1
12.0374 -12.6433 -3.00939 3.23574e-05 1
12.7505 -13.3923 -3.02124 2.31189e-05 1
13.3456 -14.0174 -2.98853 2.54907e-05 2
7.11799 -7.38499 -2.90241 0.000365285 1
7.37542 -7.65208 -2.90713 0.000318353 1
7.63935 -7.92591 -2.90783 0.000272194 1
7.9369 -8.23462 -2.91422 0.000224983 1
8.26509 -8.57512 -2.92394 0.000187483 1
8.60786 -8.93075 -2.93031 0.000160094 1
9.00199 -9.33966 -2.94483 0.000123584 1
9.39954 -9.75212 -2.95044 0.000108964 1
9.8568 -10.2265 -2.96397 8.90489e-05 1
10.3263 -10.7136 -2.96945 8.04884e-05 2
10.8729 -11.2808 -2.98427 5.18063e-05 1
11.4507 -11.8802 -2.99341 4.48575e-05 1
12.1061 -12.5602 -3.00725 3.23638e-05 1
12.833 -13.3143 -3.02135 2.06549e-05 1
7.15732 -7.33518 -2.90004 0.000362024 1
7.42052 -7.60492 -2.90646 0.00030819 1
7.69501 -7.88623 -2.91054 0.000279178 1
7.99171 -8.19031 -2.91584 0.000227355 1
8.30668 -8.51311 -2.92012 0.000188607 1
8.67356 -8.8891 -2.93405 0.000163402 1
9.03895 -9.26357 -2.93827 0.000126465 1
9.45616 -9.69115 -2.94949 0.000112702 1
9.91427 -10.1606 -2.96245 9.41344e-05 1
10.3943 -10.6526 -2.97017 6.52801e-05 1
10.9357 -11.2075 -2.98258 4.93528e-05 1
11.5271 -11.8135 -2.99437 4.69668e-05 1
12.1691 -12.4715 -3.00384 3.05389e-05 1
12.915 -13.2359 -3.02148 2.26612e-05 1
14.3944 -14.7521 -2.99811 4.61423e-05 2
7.18221 -7.2709 -2.89199 0.00036408 1
7.45887 -7.55097 -2.90328 0.000283941 1
7.7409 -7.83649 -2.90966 0.000263902 1
8.02596 -8.12507 -2.91009 0.000229666 1
8.36031 -8.46354 -2.92066 0.000190346 1
8.71721 -8.82485 -2.93045 0.000162873 1
9.0999 -9.21226 -2.93965 0.000124452 1
9.50895 -9.62637 -2.94748 0.000109979 1
9.96796 -10.091 -2.95994 9.33372e-05 1
10.4618 -10.5909 -2.97081 6.53369e-05 1
11.0031 -11.139 -2.98226 4.98401e-05 1
11.597 -11.7402 -2.99377 4.56859e-05 1
12.2469 -12.3981 -3.0042 2.64773e-05 1
12.9864 -13.1467 -3.01926 2.06725e-05 1
7.23525 -7.23525 -2.89542 0.00036583 1
7.49685 -7.49685 -2.9001 0.000288216 1
7.78069 -7.78069 -2.90661 0.000263609 1
8.08263 -8.08263 -2.9126 0.000232787 1
8.1951 -8.1951 -2.84532 0.000228656 2
8.76158 -8.76158 -2.92724 0.000162306 1
9.14091 -9.14091 -2.93473 0.000125645 1
9.56047 -9.56047 -2.94521 0.000107598 1
10.0191 -10.0191 -2.9568 9.20411e-05 1
10.5157 -10.5157 -2.96776 6.67201e-05 1
10.6379 -10.6379 -2.86553 9.48238e-05 2
11.6505 -11.6505 -2.98906 4.6958e-05 1
12.3077 -12.3077 -3.00054 2.67626e-05 1
13.055 -13.055 -3.01654 2.11915e-05 1
7.26905 -7.18039 -2.89126 0.000368058 1
7.54532 -7.45329 -2.90111 0.000310016 1
7.81514 -7.71982 -2.90173 0.00028388 1
8.12402 -8.02493 -2.90972 0.000228077 1
8.25783 -8.15711 -2.84967 0.000340092 2
8.81634 -8.70881 -2.92762 0.000164476 1
9.21003 -9.09769 -2.93894 0.000126457 1
9.62271 -9.50534 -2.94636 0.00011277 1
10.0789 -9.95595 -2.95637 9.66451e-05 1
10.5916 -10.4624 -2.97099 6.46244e-05 1
11.1286 -10.9929 -2.97948 5.17559e-05 1
11.7207 -11.5777 -2.98878 4.58028e-05 1
12.3848 -12.2337 -3.00096 3.20784e-05 1
13.1278 -12.9677 -3.01491 2.12171e-05 1
13.8004 -13.632 -2.99526 1.92777e-05 2
7.30885 -7.13163 -2.88963 0.000371167 1
7.5868 -7.40284 -2.89954 0.000319976 1
7.87339 -7.68248 -2.9058 0.000275871 1
7.96244 -7.76937 -2.83472 0.000415378 2
8.36897 -8.16604 -2.87068 0.000265956 2
8.85207 -8.63743 -2.92183 0.00016404 1
9.24169 -9.01761 -2.93133 0.000124192 1
9.67347 -9.43891 -2.94411 0.000108524 1
10.1317 -9.88601 -2.95401 9.01565e-05 1
10.643 -10.3849 -2.96748 6.55484e-05 1
11.1878 -10.9165 -2.97734 5.09622e-05 1
11.7934 -11.5075 -2.98927 4.6937e-05 1
12.4594 -12.1573 -3.00092 3.38453e-05 1
13.2105 -12.8902 -3.01568 2.19268e-05 1
13.875 -13.5385 -2.99337 4.77078e-05 2
7.36314 -7.09693 -2.89382 0.000376948 1
7.61887 -7.34342 -2.89452 0.000331767 1
7.91193 -7.62588 -2.9027 0.000285447 1
8.21488 -7.91788 -2.90724 0.000231584 1
8.55256 -8.24335 -2.91625 0.000189193 1
8.91447 -8.59218 -2.92497 0.000163644 1
9.30953 -8.97295 -2.93533 0.000127789 1
9.72232 -9.37082 -2.94143 0.000106439 1
10.2002 -9.83139 -2.95633 8.81831e-05 1
10.6965 -10.3098 -2.96471 6.8506e-05 1
11.2407 -10.8343 -2.97367 5.5368e-05 1
11.8569 -11.4282 -2.98753 4.20191e-05 1
12.5121 -12.0597 -2.99572 3.27172e-05 1
13.2749 -12.7949 -3.01239 2.45082e-05 1
7.40391 -7.04911 -2.89279 0.000356424 1
7.65454 -7.28773 -2.89103 0.000345182 1
7.94495 -7.56422 -2.89773 0.000288513 1
8.2551 -7.85951 -2.90435 0.000233376 1
8.60409 -8.19178 -2.91663 0.000185748 1
8.95874 -8.52943 -2.92227 0.000158211 1
9.35519 -8.90688 -2.93244 0.000134637 1
9.77384 -9.30546 -2.93968 0.000110139 1
10.2424 -9.7516 -2.95118 8.99215e-05 1
10.7507 -10.2356 -2.96228 6.77495e-05 1
11.3117 -10.7696 -2.97491 5.08518e-05 1
11.9087 -11.338 -2.983 4.40637e-05 1
12.5893 -11.986 -2.99655 3.08602e-05 1
13.347 -12.7074 -3.01101 2.25626e-05 1
7.42315 -6.98109 -2.88352 0.000356448 1
7.70013 -7.24158 -2.89141 0.000338054 1
7.99988 -7.52348 -2.90088 0.000280457 1
8.31505 -7.81988 -2.90851 0.000238119 1
8.64414 -8.12937 -2.91324 0.000182611 1
9.01013 -8.47357 -2.92202 0.000159275 1
9.39499 -8.83551 -2.92787 0.000138319 1
9.82256 -9.23762 -2.93723 0.000117468 1
10.3129 -9.69876 -2.95429 8.69801e-05 1
10.8248 -10.1801 -2.96541 6.69849e-05 1
11.3645 -10.6878 -2.97151 5.43098e-05 1
11.9828 -11.2692 -2.98419 4.02847e-05 1
12.6662 -11.9119 -2.99739 3.07604e-05 1
13.4083 -12.6098 -3.00733 2.17561e-05 1
7.46609 -6.93564 -2.88361 0.000354514 1
7.74458 -7.19435 -2.89147 0.000322199 1
8.04181 -7.47046 -2.8994 0.000287149 1
8.35456 -7.76099 -2.90562 0.000237282 1
8.68992 -8.07253 -2.91192 0.000183711 1
9.05067 -8.40765 -2.91838 0.000161594 1
9.45241 -8.78084 -2.92892 0.000136993 1
9.88777 -9.18527 -2.93982 0.000112464 1
10.3625 -9.62631 -2.95153 8.687e-05 1
10.8684 -10.0962 -2.96033 6.74345e-05 1
11.4381 -10.6254 -2.97364 5.56771e-05 1
12.0463 -11.1905 -2.98285 4.06622e-05 1
12.7357 -11.8309 -2.99662 2.78579e-05 1
13.4914 -12.5328 -3.00866 2.2593e-05 1
7.50774 -6.889 -2.88332 0.000361606 1
7.77551 -7.1347 -2.88662 0.000318812 1
7.87623 -7.22712 -2.82366 0.000171137 2
8.38823 -7.69693 -2.90085 0.000238675 1
8.73057 -8.01105 -2.90901 0.000185723 1
9.09194 -8.34264 -2.91513 0.000161476 1
9.49228 -8.70998 -2.92465 0.000138191 1
9.93293 -9.11432 -2.93657 0.000114819 1
10.4095 -9.55161 -2.94816 8.72708e-05 1
10.9329 -10.0318 -2.96107 6.69564e-05 1
11.4991 -10.5514 -2.97261 5.73632e-05 1
12.1189 -11.1201 -2.98386 4.14722e-05 1
12.7927 -11.7384 -2.99301 3.06257e-05 1
13.5556 -12.4384 -3.0059 1.994e-05 1
7.54771 -6.84084 -2.88249 0.000354702 1
7.82516 -7.09231 -2.88884 0.000330286 1
8.11012 -7.35058 -2.89129 0.000280813 1
8.44513 -7.65422 -2.90422 0.00023515 1
8.76789 -7.94675 -2.90514 0.000182942 1
9.1535 -8.29625 -2.91849 0.000162698 1
9.55699 -8.66195 -2.92816 0.000140097 1
9.98784 -9.05245 -2.93632 0.000124586 1
10.4592 -9.47964 -2.94569 9.00539e-05 1
10.9933 -9.96373 -2.96082 6.82126e-05 1
11.5437 -10.4626 -2.96749 5.97975e-05 1
12.1635 -11.0243 -2.97813 4.08814e-05 1
12.8635 -11.6588 -2.99279 3.33508e-05 1
13.6303 -12.3537 -3.0056 1.93875e-05 1
7.5962 -6.80037 -2.88502 0.000365328 1
7.86451 -7.04057 -2.88736 0.000329754 1
8.16234 -7.30719 -2.89387 0.000274989 1
8.47741 -7.58925 -2.89926 0.00023787 1
8.67716 -7.76807 -2.85924 0.000328943 2
9.18168 -8.21974 -2.91134 0.000170465 1
9.59523 -8.58996 -2.92367 0.000143501 1
10.0309 -8.98 -2.93273 0.000129857 1
10.5229 -9.42047 -2.94732 9.17086e-05 1
11.0371 -9.88077 -2.95624 6.89584e-05 1
11.6019 -10.3864 -2.96601 5.67547e-05 1
12.0279 -10.7677 -2.92869 5.83242e-05 2
12.933 -11.578 -2.99236 3.05418e-05 1
13.7004 -12.265 -3.0044 2.41194e-05 1
14.5778 -13.0505 -3.02121 1.92398e-05 1
7.6227 -6.74029 -2.87933 0.00037176 1
7.90043 -6.98587 -2.88476 0.000336697 1
8.20119 -7.25181 -2.89181 0.000271438 1
8.51524 -7.52951 -2.89634 0.000233735 1
8.86161 -7.83578 -2.90412 0.000182506 1
9.23915 -8.16961 -2.91361 0.000171649 1
9.64522 -8.52868 -2.9229 0.000143033 1
10.0952 -8.92657 -2.93546 0.000121329 1
10.5685 -9.34511 -2.94397 8.49683e-05 1
11.0989 -9.81411 -2.95662 6.78355e-05 1
11.6656 -10.3152 -2.96607 5.68428e-05 1
12.2964 -10.873 -2.97778 4.23009e-05 1
12.9816 -11.4789 -2.98727 3.01383e-05 1
13.7698 -12.1758 -3.00318 2.51313e-05 1
14.6537 -12.9574 -3.0204 1.84412e-05 1
16.232 -14.353 -2.95831 7.6626e-05 2
7.66144 -6.69124 -2.8784 0.000368164 1
7.95174 -6.94477 -2.88788 0.000340789 1
8.25181 -7.20684 -2.89401 0.000289916 1
8.56708 -7.48219 -2.8983 0.000234869 1
8.91677 -7.78759 -2.90648 0.000187264 1
9.2761 -8.10142 -2.90953 0.00017398 1
9.70028 -8.47188 -2.92378 0.000139889 1
10.1475 -8.86251 -2.93481 0.000114288 1
10.6136 -9.26952 -2.94062 8.1296e-05 1
11.1538 -9.7413 -2.95524 6.91799e-05 1
11.7187 -10.2347 -2.96353 5.57812e-05 1
12.3559 -10.7912 -2.97609 4.2456e-05 1
13.0571 -11.4036 -2.98848 3.00837e-05 1
13.8388 -12.0863 -3.002 2.23551e-05 1
7.66878 -6.61514 -2.86585 0.00035213 2
7.98738 -6.88996 -2.88541 0.00032446 1
8.27283 -7.13619 -2.88597 0.000294398 1
8.60223 -7.42033 -2.89473 0.000237909 1
8.94561 -7.71654 -2.90039 0.00019491 1
9.31988 -8.03938 -2.90774 0.000175466 1
9.74691 -8.40775 -2.92223 0.000139316 1
10.1863 -8.78673 -2.93036 0.000114462 1
10.6782 -9.21107 -2.94281 8.00443e-05 1
11.2091 -9.66907 -2.95414 6.7377e-05 1
11.5301 -9.94597 -2.90036 6.92872e-05 2
12.4321 -10.724 -2.97854 4.01371e-05 1
12.8815 -11.1116 -2.93262 7.155e-05 2
13.9067 -11.996 -3.00072 2.21651e-05 1
7.7327 -6.58795 -2.87457 0.000372299 1
8.0106 -6.82472 -2.87862 0.000308885 1
8.33099 -7.09768 -2.89102 0.000295948 1
8.61054 -7.33584 -2.88233 0.000203929 2
8.98786 -7.6573 -2.8988 0.000195783 1
9.37623 -7.98818 -2.90997 0.000166674 1
9.7907 -8.34129 -2.91996 0.000131995 1
10.2446 -8.72799 -2.93168 0.000115226 1
10.7331 -9.14418 -2.94242 8.78291e-05 1
11.2573 -9.59082 -2.95128 6.76449e-05 1
11.84 -10.0872 -2.96269 6.23402e-05 1
12.4813 -10.6336 -2.97465 4.4093e-05 1
13.1951 -11.2417 -2.98827 2.932e-05 1
13.9711 -11.9028 -2.9988 2.24828e-05 1
7.78512 -6.5506 -2.87907 0.000371083 1
8.05824 -6.78041 -2.88074 0.000308393 1
8.36879 -7.04171 -2.88908 0.000297516 1
8.67506 -7.29942 -2.88888 0.000243982 1
9.04502 -7.61071 -2.90212 0.000188405 1
9.42497 -7.93041 -2.90994 0.000151046 1
9.82356 -8.2658 -2.91458 0.000130932 1
10.2806 -8.65039 -2.92675 0.000116141 1
10.7911 -9.07992 -2.943 9.07185e-05 1
11.3242 -9.52848 -2.95342 7.16162e-05 1
11.9039 -10.0162 -2.96323 5.36583e-05 1
12.5409 -10.5522 -2.97336 4.23597e-05 1
13.2378 -11.1386 -2.9824 3.0997e-05 1
14.033 -11.8078 -2.99648 2.07836e-05 1
14.5608 -12.2518 -2.93837 2.513e-05 2
7.80875 -6.48906 -2.87302 0.000382751 1
8.09257 -6.72492 -2.8782 0.000314001 1
8.3904 -6.97242 -2.88172 0.000287393 1
8.71657 -7.24347 -2.88785 0.000244498 1
9.08904 -7.55299 -2.90132 0.000184307 1
9.47032 -7.86983 -2.90898 0.000134561 1
9.88811 -8.21701 -2.91872 0.00013304 1
10.3363 -8.58949 -2.92755 0.000115442 1
10.8359 -9.00459 -2.94008 9.25975e-05 1
11.3814 -9.45794 -2.95315 7.08136e-05 1
11.9654 -9.9432 -2.96329 5.46877e-05 1
12.6018 -10.4721 -2.97252 4.16177e-05 1
13.3102 -11.0608 -2.98336 2.96345e-05 1
14.1159 -11.7303 -2.99875 1.92389e-05 1
7.8473 -6.44011 -2.87262 0.000387591 1
8.14348 -6.68319 -2.88167 0.000331165 1
8.44228 -6.9284 -2.88489 0.000281589 1
8.75988 -7.18905 -2.88753 0.000248722 1
9.11522 -7.48067 -2.89497 0.000190383 1
9.50692 -7.80213 -2.90546 0.00014195 1
9.93249 -8.15138 -2.917 0.000134239 1
10.3714 -8.51155 -2.92262 0.000109099 1
10.8761 -8.92577 -2.93608 8.74797e-05 1
11.4183 -9.37074 -2.94774 6.93023e-05 1
12.0095 -9.85594 -2.95919 5.75234e-05 1
12.6675 -10.396 -2.97291 4.2575e-05 1
13.3813 -10.9818 -2.98414 3.08481e-05 1
14.1793 -11.6367 -2.997 2.00513e-05 1
7.8831 -6.38895 -2.87132 0.000390217 1
8.18136 -6.63068 -2.88063 0.000350019 1
8.47652 -6.86989 -2.88213 0.000280655 1
8.63106 -6.99514 -2.83086 7.95105e-05 2
9.16756 -7.42996 -2.89706 0.000193807 1
9.55212 -7.74163 -2.9047 0.000156268 1
9.97068 -8.08085 -2.9136 0.000135393 1
10.4332 -8.45569 -2.92536 0.000114778 1
10.9439 -8.86963 -2.93964 8.90244e-05 1
11.4716 -9.29729 -2.94673 6.82821e-05 1
12.069 -9.78143 -2.959 5.5722e-05 1
12.712 -10.3026 -2.96846 4.04765e-05 1
13.4319 -10.886 -2.98047 3.0803e-05 1
14.243 -11.5434 -2.99542 2.13054e-05 1
7.91262 -6.33283 -2.86786 0.000390237 1
8.21663 -6.57614 -2.87878 0.000344741 1
8.51051 -6.81135 -2.87942 0.000281819 1
8.85233 -7.08492 -2.88913 0.000255521 1
9.2099 -7.3711 -2.89609 0.000194235 1
9.59198 -7.6769 -2.90244 0.000158923 1
10.0157 -8.01602 -2.91232 0.000128909 1
10.4669 -8.37715 -2.92036 0.000114342 1
10.9808 -8.78842 -2.935 9.47806e-05 1
11.5262 -9.22497 -2.94616 6.89217e-05 1
12.1199 -9.70011 -2.95684 4.92858e-05 1
12.776 -10.2252 -2.9687 4.21398e-05 1
13.2375 -10.5945 -2.92285 6.95991e-05 2
14.2968 -11.4424 -2.99192 2.08185e-05 1
7.95716 -6.28876 -2.86996 0.000398641 1
8.23578 -6.50897 -2.87144 0.00033627 1
8.54671 -6.7547 -2.87759 0.000303364 1
8.88308 -7.02055 -2.88505 0.000235143 1
9.25255 -7.31255 -2.89534 0.000192301 1
9.63532 -7.61506 -2.90136 0.000161089 1
10.0561 -7.94764 -2.90984 0.000131869 1
10.5131 -8.30881 -2.91897 0.000116316 1
11.0416 -8.72653 -2.9369 9.54062e-05 1
11.4543 -9.05263 -2.91352 0.000167581 2
12.1793 -9.62563 -2.95686 4.71679e-05 1
12.8472 -10.1535 -2.97071 4.1433e-05 1
14.3736 -11.3598 -2.99334 2.02896e-05 1
7.99782 -6.24156 -2.87076 0.000395155 1
8.29105 -6.4704 -2.87682 0.000336463 1
8.59975 -6.71131 -2.88153 0.000304609 1
8.93745 -6.97485 -2.88875 0.000241705 1
9.28083 -7.24283 -2.89023 0.000197644 1
9.6718 -7.54795 -2.89835 0.000168389 1
10.0968 -7.87964 -2.90758 0.000130824 1
10.5751 -8.25292 -2.92207 0.000119289 1
11.0773 -8.64479 -2.93222 9.02281e-05 1
11.2104 -8.74868 -2.83778 0.000213498 2
12.2332 -9.54687 -2.95567 5.3255e-05 1
12.8949 -10.0633 -2.9674 3.9401e-05 1
13.6273 -10.6349 -2.97989 3.49753e-05 1
14.4371 -11.2668 -2.99212 2.07184e-05 1
16.08 -12.5489 -2.96696 3.75926e-05 2
8.02655 -6.18511 -2.8674 0.000389635 1
8.32085 -6.41189 -2.87345 0.000341813 1
8.63151 -6.65128 -2.87844 0.000301285 1
8.96456 -6.90792 -2.88376 0.00025919 1
9.33553 -7.19379 -2.89346 0.000198714 1
9.73222 -7.49947 -2.90261 0.000169197 1
10.1497 -7.82117 -2.90893 0.00013492 1
10.6141 -8.179 -2.9189 0.000117803 1
11.1381 -8.58282 -2.93432 8.34719e-05 1
11.6769 -8.99799 -2.94183 6.93291e-05 1
12.2956 -9.4748 -2.95666 5.16487e-05 1
12.9572 -9.98457 -2.96758 4.26808e-05 1
13.6853 -10.5457 -2.97836 3.43458e-05 1
14.5144 -11.1846 -2.99387 2.37469e-05 1
15.3255 -11.8095 -2.98751 2.61293e-05 2
8.0618 -6.13381 -2.86649 0.000383912 1
8.35718 -6.35855 -2.87247 0.000353465 1
8.67013 -6.59666 -2.87777 0.000296602 1
9.00994 -6.85519 -2.88477 0.000260484 1
9.37772 -7.13502 -2.89291 0.000196159 1
9.77079 -7.43409 -2.90045 0.00016691 1
10.1965 -7.75802 -2.90866 0.00013646 1
10.6589 -8.10979 -2.91749 0.000109086 1
11.1689 -8.49783 -2.92864 9.12273e-05 1
11.7349 -8.92845 -2.94258 6.47644e-05 1
12.3473 -9.39445 -2.95517 5.16632e-05 1
13.0153 -9.9027 -2.96693 4.57013e-05 1
13.7349 -10.4502 -2.97514 3.44254e-05 1
14.573 -11.0878 -2.99185 2.4304e-05 1
8.10058 -6.0852 -2.86695 0.0003658 1
8.39132 -6.3036 -2.87085 0.000351907 1
8.67201 -6.51446 -2.86507 0.000168361 2
9.03547 -6.78749 -2.87956 0.000237871 1
9.40984 -7.06872 -2.88939 0.000209213 1
9.81505 -7.37312 -2.90011 0.000171087 1
10.2325 -7.68674 -2.90542 0.000135758 1
10.7102 -8.04558 -2.91798 0.000110013 1
11.2242 -8.43165 -2.92951 9.46261e-05 1
11.7832 -8.85163 -2.94104 6.58391e-05 1
12.4073 -9.32043 -2.95578 6.01611e-05 1
13.0637 -9.81352 -2.96417 4.68598e-05 1
13.812 -10.3756 -2.97799 3.39313e-05 1
14.6326 -10.9921 -2.99019 2.28365e-05 1
17.693 -13.2911 -3.02131 2.12648e-05 2
8.14139 -6.03807 -2.86823 0.000363447 1
8.43569 -6.25633 -2.87285 0.00032411 1
8.72958 -6.4743 -2.87091 0.000409501 2
9.09338 -6.74411 -2.88477 0.000237674 1
9.43986 -7.00108 -2.88536 0.000219911 1
9.85466 -7.30871 -2.89851 0.00017935 1
10.2817 -7.62545 -2.90604 0.000131013 1
10.7611 -7.981 -2.91845 0.000112544 1
11.2633 -8.35343 -2.92629 9.41624e-05 1
11.835 -8.77744 -2.94046 7.09228e-05 1
12.4425 -9.22797 -2.95062 5.56526e-05 1
13.1126 -9.72495 -2.96167 4.33166e-05 1
13.8632 -10.2816 -2.97537 3.76874e-05 1
14.7022 -10.9039 -2.99069 1.92421e-05 1
8.16737 -5.98001 -2.8644 0.000378315 1
8.4682 -6.20027 -2.87091 0.000327148 1
8.76984 -6.42112 -2.87114 0.000299282 1
9.11286 -6.67228 -2.87791 0.000248824 1
9.49412 -6.95143 -2.88885 0.000205727 1
9.89316 -7.2436 -2.8967 0.000172781 1
10.3134 -7.55126 -2.90183 0.000138104 1
10.7982 -7.90628 -2.9153 0.00011459 1
11.172 -8.17992 -2.88947 3.34109e-05 2
11.2598 -8.24427 -2.78494 3.2092e-05 2
12.4971 -9.15013 -2.95019 6.08259e-05 1
13.1767 -9.64774 -2.96272 4.27244e-05 1
13.9338 -10.2021 -2.97704 3.3754e-05 1
14.7569 -10.8047 -2.98827 2.09066e-05 1
8.19301 -5.92191 -2.86059 0.000390803 1
8.48848 -6.13547 -2.86497 0.000341354 1
8.82383 -6.37786 -2.87595 0.000278717 1
9.1583 -6.61961 -2.87937 0.000254644 1
9.52893 -6.88751 -2.88653 0.000211927 1
9.92202 -7.17163 -2.89221 0.000168822 1
10.3576 -7.48646 -2.9013 0.000139965 1
10.8498 -7.84225 -2.91618 0.00011328 1
11.3725 -8.22005 -2.92824 8.90388e-05 1
11.9299 -8.62292 -2.93752 8.22387e-05 1
12.551 -9.07188 -2.94974 5.44174e-05 1
13.2261 -9.55983 -2.96059 4.54266e-05 1
13.9821 -10.1063 -2.97405 3.31179e-05 1
14.828 -10.7176 -2.98929 2.311e-05 1
8.23281 -5.8741 -2.86185 0.000389663 1
8.54264 -6.09517 -2.87057 0.000343481 1
8.85631 -6.31897 -2.87384 0.000279993 1
9.19675 -6.56187 -2.87875 0.000250761 1
9.55641 -6.81849 -2.88213 0.000205151 1
9.96286 -7.10849 -2.89135 0.000167333 1
10.4118 -7.42877 -2.90364 0.000142829 1
10.8834 -7.76533 -2.91236 0.000107383 1
11.4023 -8.1355 -2.92299 9.67073e-05 1
11.9785 -8.54665 -2.93652 7.76642e-05 1
12.6041 -8.99304 -2.94919 5.71753e-05 1
13.289 -9.48169 -2.96159 4.32043e-05 1
14.043 -10.0196 -2.97386 3.5007e-05 1
14.8763 -10.6142 -2.98585 2.18518e-05 1
8.27079 -5.82495 -2.86258 0.000394456 1
8.55693 -6.02647 -2.86289 0.000339512 1
8.88756 -6.25932 -2.87147 0.000277978 1
9.23114 -6.5013 -2.87697 0.000249629 1
9.60709 -6.76608 -2.88484 0.000210168 1
9.93898 -6.99982 -2.8719 0.000164634 2
10.2215 -7.19881 -2.83822 0.000178731 2
10.9322 -7.69935 -2.91272 0.000108684 1
11.4632 -8.07329 -2.92585 9.64556e-05 1
12.0293 -8.47201 -2.93618 7.20418e-05 1
12.654 -8.91193 -2.948 6.07235e-05 1
13.3432 -9.39732 -2.96075 4.4046e-05 1
14.0989 -9.92959 -2.97276 3.56799e-05 1
14.9514 -10.53 -2.98789 1.98147e-05 1
15.8882 -11.1897 -3.00069 2.02306e-05 2
8.29763 -5.76801 -2.85956 0.000389107 1
8.60047 -5.97853 -2.86513 0.000356228 1
8.91429 -6.19668 -2.86776 0.000275864 1
9.25984 -6.43688 -2.87356 0.000254564 1
9.63048 -6.69452 -2.87947 0.000214762 1
10.0496 -6.98586 -2.89142 0.000170442 1
10.5016 -7.30011 -2.90351 0.000147539 1
10.9716 -7.6268 -2.91068 0.000109515 1
11.5127 -8.00296 -2.92591 9.54376e-05 1
12.0758 -8.39438 -2.9349 7.49705e-05 1
12.7155 -8.83902 -2.94963 5.90946e-05 1
13.4057 -9.31881 -2.96187 5.14005e-05 1
14.1642 -9.84612 -2.97373 3.35613e-05 1
15.004 -10.4298 -2.98555 2.70772e-05 1
8.33724 -5.71999 -2.86106 0.000391673 1
8.63195 -5.92218 -2.86346 0.000346619 1
8.95378 -6.14299 -2.86829 0.000290969 1
9.30329 -6.38277 -2.87483 0.000245003 1
9.67503 -6.63782 -2.88056 0.0002119 1
10.0752 -6.91237 -2.88654 0.000171485 1
10.5387 -7.23035 -2.90143 0.00013158 1
10.9776 -7.53151 -2.89997 0.000107159 2
11.5392 -7.91678 -2.92023 9.51499e-05 1
12.1227 -8.31709 -2.93383 7.38617e-05 1
12.7629 -8.75634 -2.94812 5.97336e-05 1
13.4489 -9.22699 -2.95887 4.7796e-05 1
14.2194 -9.75564 -2.9727 3.4088e-05 1
15.0693 -10.3387 -2.98588 2.64432e-05 1
15.6392 -10.7297 -2.92857 4.07745e-05 2
16.8178 -11.5383 -2.9667 2.17632e-05 2
8.36404 -5.66321 -2.85828 0.000395024 1
8.65867 -5.8627 -2.86033 0.00033789 1
9.00194 -6.09513 -2.87168 0.00030099 1
9.33719 -6.32213 -2.87327 0.000238247 1
9.72608 -6.58544 -2.88368 0.000213848 1
10.1231 -6.85425 -2.88815 0.000173897 1
10.5743 -7.15975 -2.89908 0.00012952 1
11.0653 -7.49219 -2.91092 0.000113022 1
11.5887 -7.84659 -2.92052 8.98331e-05 1
12.1868 -8.2516 -2.93705 7.18826e-05 1
12.8147 -8.67671 -2.94773 6.44064e-05 1
13.4946 -9.13704 -2.95652 4.70299e-05 1
14.2623 -9.6569 -2.96922 4.01978e-05 1
15.1395 -10.2508 -2.98727 2.69102e-05 1
8.3855 -5.60301 -2.85381 0.000395236 1
8.69271 -5.80828 -2.85975 0.000336118 1
9.0156 -6.02403 -2.86419 0.000280935 1
9.38644 -6.27182 -2.87652 0.000230672 1
9.7432 -6.5102 -2.87685 0.000216245 1
10.1583 -6.78756 -2.88626 0.000170279 1
10.6219 -7.0973 -2.90013 0.000134977 1
11.1004 -7.41706 -2.90813 0.000111024 1
11.6294 -7.77049 -2.9187 8.29176e-05 1
12.2191 -8.16454 -2.9327 6.90403e-05 1
12.869 -8.59876 -2.94802 6.10917e-05 1
13.5695 -9.06684 -2.96069 4.01296e-05 1
14.3384 -9.58058 -2.97275 3.84546e-05 1
15.1965 -10.154 -2.98616 2.47708e-05 1
8.42616 -5.5557 -2.85599 0.000401262 1
8.73314 -5.75811 -2.86138 0.000333787 1
9.04888 -5.96629 -2.86308 0.000278442 1
9.40361 -6.20017 -2.87007 0.000242569 1
9.78519 -6.45176 -2.87751 0.000217774 1
10.1946 -6.72172 -2.88481 0.000168174 1
10.6421 -7.01676 -2.89385 0.000137686 1
11.151 -7.3523 -2.90952 0.000112855 1
11.6769 -7.69904 -2.91872 9.25964e-05 1
12.2653 -8.08701 -2.93183 7.1234e-05 1
12.9174 -8.51698 -2.9471 6.04911e-05 1
13.6001 -8.9671 -2.95531 4.54804e-05 1
14.3834 -9.48351 -2.96996 3.34051e-05 1
15.2489 -10.0542 -2.98428 2.42655e-05 1
8.46922 -5.50983 -2.85907 0.000394988 1
8.77413 -5.7082 -2.86328 0.000338876 1
9.097 -5.91825 -2.86676 0.00028015 1
9.44365 -6.14377 -2.87073 0.00025401 1
9.84 -6.40162 -2.88202 0.000206852 1
10.2301 -6.65543 -2.88324 0.000169398 1
10.6831 -6.95013 -2.89335 0.000138123 1
11.085 -7.21161 -2.8807 1.97171e-05 2
11.7237 -7.62707 -2.91865 9.46594e-05 1
12.3059 -8.00588 -2.92973 7.08616e-05 1
12.9663 -8.43548 -2.94637 5.31783e-05 1
13.6683 -8.89218 -2.95821 4.45878e-05 1
14.4429 -9.39613 -2.9703 3.36969e-05 1
15.3046 -9.9567 -2.98316 2.36269e-05 1
15.5391 -10.1093 -2.86249 3.51638e-05 2
8.49129 -5.45033 -2.85518 0.000382025 1
8.79612 -5.64599 -2.85909 0.000341909 1
9.13353 -5.86257 -2.86689 0.000276434 1
9.48388 -6.08745 -2.87155 0.000246702 1
9.86775 -6.33384 -2.87871 0.000205935 1
10.2719 -6.59324 -2.88355 0.000170653 1
10.7276 -6.88579 -2.89391 0.000137772 1
11.2221 -7.20316 -2.90478 0.00010385 1
11.7581 -7.5472 -2.91564 9.42114e-05 1
12.3603 -7.93375 -2.93104 6.64783e-05 1
13.0041 -8.34701 -2.94329 6.02427e-05 1
13.7261 -8.81042 -2.95897 4.35583e-05 1
14.499 -9.3065 -2.97003 3.36623e-05 1
15.3684 -9.86454 -2.98374 2.59876e-05 1
8.53371 -5.40391 -2.85824 0.000387688 1
8.83447 -5.59436 -2.86035 0.000342158 1
9.16211 -5.80184 -2.86463 0.000271319 1
9.5048 -6.01885 -2.86665 0.000249376 1
9.90601 -6.27291 -2.87859 0.000202518 1
10.3109 -6.52932 -2.88321 0.000174681 1
10.7609 -6.81428 -2.89155 0.000138667 1
11.269 -7.13603 -2.90554 0.000112388 1
11.8061 -7.47615 -2.91613 9.39521e-05 1
12.4138 -7.86097 -2.93223 6.51384e-05 1
13.7593 -8.71296 -2.95454 4.60032e-05 1
14.5393 -9.20693 -2.96667 3.51768e-05 1
15.421 -9.76525 -2.98228 2.31443e-05 1
8.54606 -5.33855 -2.85135 0.00039953 1
8.85915 -5.53413 -2.85729 0.000339856 1
9.2027 -5.74874 -2.86624 0.000280881 1
9.54784 -5.96434 -2.86854 0.000254825 1
9.92604 -6.2006 -2.8733 0.000199869 1
10.3519 -6.46664 -2.88353 0.000177108 1
10.8219 -6.76024 -2.89675 0.00013579 1
11.3035 -7.06105 -2.9032 0.000103722 1
11.8433 -7.39827 -2.91404 9.55842e-05 1
12.4596 -7.78329 -2.93172 6.45318e-05 1
13.1134 -8.19164 -2.94503 5.886e-05 1
13.8115 -8.62776 -2.95433 4.67285e-05 1
14.6105 -9.12685 -2.9697 3.25315e-05 1
15.4806 -9.67043 -2.98227 2.01694e-05 1
8.58492 -5.28987 -2.85343 0.000429677 1
8.89197 -5.47907 -2.85698 0.000345072 1
9.21488 -5.67804 -2.85913 0.000279515 1
9.57602 -5.90057 -2.86608 0.000254754 1
9.96291 -6.13896 -2.87301 0.000209114 1
10.3819 -6.39712 -2.88088 0.000167552 1
10.8491 -6.68502 -2.89299 0.000137993 1
11.1197 -6.85176 -2.84514 6.00503e-05 2
11.8957 -7.32992 -2.91581 8.87863e-05 1
12.501 -7.70288 -2.93027 5.97909e-05 1
13.1548 -8.10574 -2.94311 5.84819e-05 1
13.8751 -8.5496 -2.95666 4.44065e-05 1
14.6559 -9.0307 -2.96762 3.25469e-05 1
15.5477 -9.58021 -2.98381 2.15083e-05 1
8.62242 -5.24026 -2.85516 0.000417559 1
8.93439 -5.42986 -2.85985 0.000357509 1
9.24835 -5.62067 -2.85875 0.000288903 1
9.3312 -5.67102 -2.78234 0.000801962 2
10.012 -6.08477 -2.87635 0.000208292 1
10.418 -6.33152 -2.88007 0.000171216 1
10.8856 -6.61569 -2.89183 0.000144501 1
11.1841 -6.79712 -2.8509 0.000118494 2
11.132 -6.76546 -2.71839 0.000134604 2
12.5245 -7.61177 -2.92479 0.000158597 2
13.1932 -8.01813 -2.94064 5.47804e-05 1
13.9178 -8.45854 -2.95465 4.53742e-05 1
14.7153 -8.94323 -2.96849 3.30227e-05 1
15.5907 -9.47524 -2.98086 1.96354e-05 1
8.64923 -5.18415 -2.85345 0.000410397 1
8.9524 -5.36586 -2.85502 0.000367762 1
9.28798 -5.567 -2.86039 0.000276957 1
9.661 -5.79058 -2.87003 0.000263883 1
9.83386 -5.89419 -2.81473 0.000260502 2
10.4505 -6.26377 -2.87836 0.000173697 1
10.925 -6.54819 -2.89158 0.000143839 1
11.4201 -6.84495 -2.90029 0.000111315 1
11.9721 -7.1758 -2.91273 9.40736e-05 1
12.5941 -7.54861 -2.93016 5.62064e-05 1
13.2501 -7.94182 -2.94241 5.63676e-05 1
13.9654 -8.37052 -2.95378 4.23604e-05 1
14.7613 -8.8476 -2.96675 3.10034e-05 1
15.6503 -9.38045 -2.98119 2.04021e-05 1
8.67828 -5.12944 -2.8526 0.000403172 1
8.98557 -5.31108 -2.85515 0.000361889 1
9.33404 -5.51705 -2.8641 0.000290031 1
9.67501 -5.71858 -2.86371 0.000258406 1
10.0705 -5.95233 -2.87195 0.000199377 1
10.4967 -6.20427 -2.88057 0.000181339 1
10.9595 -6.47781 -2.89014 0.000149132 1
11.4641 -6.77603 -2.90084 0.000109983 1
12.0093 -7.09829 -2.91112 8.9372e-05 1
12.6344 -7.46779 -2.92883 6.54653e-05 1
13.2294 -7.81948 -2.92711 0.000118147 2
13.2619 -7.8387 -2.79478 6.89226e-05 2
14.8031 -8.74961 -2.9643 3.35332e-05 1
15.7062 -9.28344 -2.98093 2.09802e-05 1
8.70016 -5.0706 -2.84951 0.000406907 1
9.01799 -5.25584 -2.85515 0.000352512 1
9.35431 -5.45186 -2.86 0.000296186 1
9.71519 -5.66218 -2.86526 0.000256255 1
10.1013 -5.88722 -2.87038 0.000203934 1
10.5392 -6.14242 -2.88182 0.000170939 1
11.0069 -6.41499 -2.89219 0.000145121 1
10.7913 -6.28936 -2.7208 9.02455e-05 2
12.0684 -7.0337 -2.91495 9.54284e-05 1
12.6778 -7.38886 -2.92833 6.44027e-05 1
13.3207 -7.76353 -2.9367 5.75883e-05 1
14.0525 -8.19002 -2.95072 4.10003e-05 1
14.8499 -8.65476 -2.96298 3.04018e-05 1
15.78 -9.19685 -2.98416 2.15807e-05 1
8.73177 -5.01751 -2.84972 0.000426606 1
9.03556 -5.19207 -2.85058 0.000375358 1
9.22823 -5.30278 -2.81145 0.000223965 2
9.75327 -5.60449 -2.8663 0.000255191 1
10.0142 -5.75444 -2.83555 0.000194803 2
10.1065 -5.80747 -2.75372 0.000159502 2
10.8422 -6.23023 -2.83883 0.000159853 2
11.5315 -6.62631 -2.89712 0.000107527 1
12.0985 -6.95211 -2.91185 9.27916e-05 1
12.7154 -7.30662 -2.9266 6.5867e-05 1
13.3862 -7.69205 -2.94068 5.51178e-05 1
14.1012 -8.10292 -2.95046 4.13544e-05 1
14.9154 -8.5708 -2.96551 3.15975e-05 1
14.7707 -8.48763 -2.78339 3.29027e-05 2
8.75275 -4.95837 -2.84659 0.000425918 1
9.0649 -5.13521 -2.84984 0.000386515 1
9.42698 -5.34032 -2.86196 0.000295907 1
9.77013 -5.53471 -2.86122 0.000258015 1
10.1068 -5.72544 -2.85177 0.000241544 2
10.5894 -5.99885 -2.87522 0.000162337 1
11.587 -6.56398 -2.90089 0.000110208 1
12.1282 -6.87053 -2.90879 8.20775e-05 1
12.7419 -7.21818 -2.92244 6.92522e-05 1
13.4295 -7.60773 -2.93989 5.76968e-05 1
14.1395 -8.00995 -2.94814 4.26578e-05 1
14.9671 -8.47875 -2.96538 3.23534e-05 1
15.8693 -8.98983 -2.97996 2.12418e-05 1
8.78217 -4.9041 -2.84631 0.000413495 1
9.09661 -5.07969 -2.84995 0.000412359 1
9.45157 -5.27791 -2.85954 0.000293048 1
9.80844 -5.47719 -2.86254 0.000246606 1
10.1993 -5.69545 -2.86795 0.000214731 1
10.6287 -5.93521 -2.87592 0.000162677 1
11.095 -6.19564 -2.8849 0.000145985 1
11.6046 -6.48018 -2.89528 0.000110052 1
12.1831 -6.80325 -2.91191 8.32136e-05 1
12.7906 -7.14246 -2.9235 7.04882e-05 1
13.4628 -7.51782 -2.93702 5.82619e-05 1
14.1986 -7.92873 -2.95026 4.22685e-05 1
14.9978 -8.37498 -2.96122 3.20379e-05 1
15.9398 -8.90107 -2.9829 2.19182e-05 1
8.816 -4.85227 -2.84758 0.000429381 1
9.14301 -5.03226 -2.85476 0.000408935 1
9.47929 -5.21735 -2.85819 0.000303096 1
9.83693 -5.41419 -2.86111 0.000247128 1
10.2312 -5.63117 -2.86714 0.000192368 1
10.6597 -5.86702 -2.87452 0.000163886 1
11.1332 -6.12767 -2.885 0.00013601 1
11.6425 -6.40796 -2.89487 0.000100618 1
12.222 -6.72692 -2.91128 9.73535e-05 1
12.8381 -7.06599 -2.92439 7.2131e-05 1
13.515 -7.43856 -2.93839 5.70798e-05 1
14.2477 -7.84187 -2.95041 4.26486e-05 1
14.9644 -8.2363 -2.9446 4.68135e-05 2
15.9689 -8.78917 -2.97818 2.08523e-05 1
8.85248 -4.80182 -2.84979 0.000421305 1
9.17157 -4.9749 -2.85409 0.000391008 1
9.51404 -5.16067 -2.85907 0.000303987 1
9.88407 -5.36138 -2.8652 0.000259026 1
10.2644 -5.5677 -2.86683 0.000202755 1
10.6923 -5.7998 -2.87368 0.000160699 1
11.1707 -6.05927 -2.88502 0.000131819 1
11.6959 -6.34415 -2.89841 0.000103831 1
12.181 -6.60727 -2.89179 0.000197348 2
12.8708 -6.98145 -2.92203 6.93014e-05 1
13.5543 -7.35221 -2.93708 5.51126e-05 1
14.2956 -7.7543 -2.95041 4.30366e-05 1
15.1134 -8.1979 -2.96396 3.31123e-05 1
16.0441 -8.70273 -2.9822 2.06982e-05 1
8.87646 -4.74457 -2.84808 0.000407168 1
9.07759 -4.85207 -2.81553 0.000304018 2
9.53231 -5.09513 -2.85511 0.000329363 1
9.89336 -5.28811 -2.85843 0.000259798 1
10.2935 -5.50199 -2.86547 0.000213874 1
10.7312 -5.73594 -2.8746 0.000169394 1
11.2067 -5.99009 -2.88477 0.00013112 1
11.728 -6.26875 -2.89678 0.000106678 1
12.2821 -6.56494 -2.90619 8.64355e-05 1
12.9003 -6.89536 -2.91907 6.86662e-05 1
13.5892 -7.26358 -2.93493 5.43519e-05 1
14.3228 -7.65571 -2.94628 3.98714e-05 1
15.1619 -8.10418 -2.96366 2.68528e-05 1
16.0743 -8.59187 -2.97795 2.18117e-05 1
8.90272 -4.6886 -2.84723 0.000413458 1
9.22073 -4.85608 -2.85063 0.00036421 1
9.56487 -5.03732 -2.85555 0.000330496 1
9.92554 -5.22726 -2.85841 0.000258534 1
10.3455 -5.44844 -2.87058 0.000204353 1
10.7769 -5.67565 -2.87748 0.000170054 1
11.2328 -5.91571 -2.88208 0.000135605 1
11.7533 -6.18982 -2.89359 0.000108267 1
12.3348 -6.49612 -2.90918 9.76887e-05 1
12.9548 -6.82261 -2.92187 6.85081e-05 1
13.4293 -7.07253 -2.89098 3.95545e-05 2
14.3614 -7.56342 -2.94462 4.06684e-05 1
15.1858 -7.99759 -2.9587 3.07014e-05 1
16.1223 -8.49077 -2.97714 2.17399e-05 1
8.93341 -4.63497 -2.84789 0.000428081 1
9.0728 -4.70729 -2.79592 7.68357e-05 2
9.05269 -4.69685 -2.69398 0.000264443 2
9.96833 -5.17192 -2.86154 0.00025629 1
10.3659 -5.37819 -2.86703 0.00019351 1
10.7969 -5.60181 -2.87358 0.000169005 1
11.282 -5.85349 -2.88544 0.000140945 1
11.7814 -6.11262 -2.89124 0.000113328 1
12.3662 -6.41603 -2.90723 9.32664e-05 1
12.9768 -6.73284 -2.91747 6.69666e-05 1
13.6606 -7.08762 -2.93135 5.30269e-05 1
14.4055 -7.4741 -2.94421 4.17153e-05 1
15.2474 -7.91086 -2.96117 3.04679e-05 1
16.1895 -8.3997 -2.97999 2.30812e-05 1
8.94857 -4.57337 -2.84372 0.000408152 1
9.26135 -4.73322 -2.84502 0.000343997 1
9.62758 -4.92039 -2.85603 0.000312934 1
9.98548 -5.1033 -2.85742 0.000262812 1
10.392 -5.31108 -2.8652 0.000184981 1
10.8375 -5.53876 -2.87529 0.000148984 1
11.31 -5.7802 -2.88347 0.000142504 1
11.8283 -6.04509 -2.89357 0.000121038 1
12.4036 -6.33916 -2.90683 8.90865e-05 1
13.0202 -6.65427 -2.91799 6.88422e-05 1
13.6959 -6.99959 -2.92965 5.497e-05 1
14.4539 -7.387 -2.94478 4.4632e-05 1
15.2861 -7.8123 -2.95933 2.93077e-05 1
16.2278 -8.29358 -2.9776 2.22005e-05 1
8.98214 -4.52123 -2.84552 0.000425686 1
9.29738 -4.67991 -2.84721 0.0003637 1
9.64353 -4.85415 -2.85187 0.000296366 1
10.0095 -5.03838 -2.8554 0.000273473 1
10.4222 -5.24609 -2.86458 0.000206707 1
10.8615 -5.46724 -2.87271 0.000157461 1
11.3443 -5.71026 -2.88325 0.000134284 1
11.8615 -5.97056 -2.89268 0.000112814 1
12.4245 -6.25398 -2.90268 9.02259e-05 1
13.0585 -6.57312 -2.91749 6.70102e-05 1
13.7493 -6.92082 -2.93193 5.67013e-05 1
14.4861 -7.29169 -2.94216 4.37849e-05 1
15.34 -7.72149 -2.96053 3.03391e-05 1
16.2718 -8.19055 -2.9764 1.92932e-05 1
19.7834 -9.95813 -3.02394 2.49454e-05 2
9.00371 -4.46305 -2.84362 0.000415137 1
9.3313 -4.62544 -2.84885 0.000377324 1
9.67862 -4.79761 -2.85349 0.000316125 1
10.0524 -4.9829 -2.85886 0.000271423 1
10.4577 -5.18379 -2.86554 0.000224904 1
10.8934 -5.39976 -2.87231 0.000159194 1
11.3653 -5.63368 -2.87974 0.000132198 1
11.9033 -5.90035 -2.89399 0.000112522 1
12.4664 -6.17948 -2.90355 8.85887e-05 1
13.0956 -6.49135 -2.9168 6.52144e-05 1
13.7861 -6.83367 -2.93079 5.24447e-05 1
14.5347 -7.20472 -2.943 4.30571e-05 1
15.3835 -7.62544 -2.95984 3.02521e-05 1
16.3241 -8.09172 -2.97683 2.08304e-05 1
8.87178 -4.33005 -2.79352 0.000323001 2
9.34902 -4.56298 -2.84566 0.00037441 1
9.71244 -4.74036 -2.85483 0.000320979 1
10.0659 -4.91288 -2.85407 0.000267153 1
10.4877 -5.11873 -2.8651 0.000221096 1
10.9319 -5.33552 -2.87377 0.000162845 1
11.403 -5.56544 -2.88057 0.000134118 1
11.9127 -5.81426 -2.88756 0.000115998 1
12.4966 -6.09923 -2.90182 9.13514e-05 1
13.1291 -6.40794 -2.91547 6.84496e-05 1
13.7268 -6.69964 -2.90938 8.40347e-05 2
15.4024 -7.51746 -2.95456 2.92704e-05 1
16.3627 -7.98614 -2.97487 2.18351e-05 1
8.82661 -4.24114 -2.77105 0.000234597 2
9.3679 -4.50123 -2.84295 0.000366943 1
9.71615 -4.66856 -2.84744 0.000322439 1
10.1129 -4.85919 -2.85887 0.000266818 1
10.5046 -5.04742 -2.86121 0.000199216 1
10.9432 -5.25815 -2.86821 0.000166183 1
11.4404 -5.49708 -2.88146 0.000137222 1
11.9618 -5.7476 -2.89086 0.000116401 1
12.5248 -6.01812 -2.89974 9.08947e-05 1
13.1614 -6.32399 -2.91396 7.25294e-05 1
13.8626 -6.66089 -2.92944 5.69384e-05 1
14.4897 -6.96225 -2.91638 2.10993e-05 2
14.5339 -6.98345 -2.77967 3.88514e-05 2
16.4259 -7.89255 -2.9775 2.1671e-05 1
8.86008 -4.19051 -2.77343 0.000128555 2
9.39402 -4.44304 -2.84255 0.000366876 1
9.7557 -4.6141 -2.85069 0.000301022 1
10.1202 -4.78652 -2.8526 0.00026095 1
10.5437 -4.9868 -2.86347 0.000204314 1
10.9868 -5.19636 -2.87122 0.000161683 1
11.4518 -5.41629 -2.8759 0.000138532 1
11.9933 -5.67242 -2.89 0.000115688 1
12.5669 -5.94368 -2.90097 8.67293e-05 1
13.2039 -6.24497 -2.91483 7.17225e-05 1
13.8801 -6.56478 -2.92457 5.48188e-05 1
14.6572 -6.93235 -2.94147 4.46655e-05 1
15.4923 -7.3273 -2.95432 2.75707e-05 1
16.4719 -7.79065 -2.97713 2.12223e-05 1
9.0891 -4.23077 -2.83694 0.000391041 1
9.43669 -4.39257 -2.84725 0.000373994 1
9.78477 -4.55459 -2.85096 0.000305384 1
10.1617 -4.73006 -2.85606 0.000253186 1
10.5758 -4.92278 -2.86391 0.000212106 1
10.7211 -4.99044 -2.79374 0.000148205 2
11.4834 -5.34526 -2.87554 0.000142034 1
12.0215 -5.59576 -2.88847 0.000120773 1
12.5971 -5.86365 -2.89958 9.52225e-05 1
13.2173 -6.15235 -2.90939 7.33785e-05 1
13.9349 -6.48639 -2.92768 5.6496e-05 1
14.6874 -6.83666 -2.93905 4.66622e-05 1
15.5294 -7.22857 -2.95288 2.79328e-05 1
16.5071 -7.68369 -2.9749 2.19791e-05 1
9.12375 -4.17899 -2.8397 0.000390567 1
9.457 -4.33162 -2.8453 0.000366784 1
9.79436 -4.48615 -2.84568 0.000320468 1
10.18 -4.66278 -2.8531 0.000258084 1
10.5943 -4.85256 -2.86083 0.000204719 1
11.0406 -5.05696 -2.86885 0.000166215 1
11.5151 -5.27432 -2.87533 0.000145017 1
12.0353 -5.51259 -2.88361 0.000111172 1
12.6306 -5.78523 -2.89907 9.71847e-05 1
13.2753 -6.08054 -2.9139 6.65666e-05 1
13.9537 -6.39128 -2.92334 5.59516e-05 1
14.7123 -6.73872 -2.9357 4.62036e-05 1
15.5911 -7.14126 -2.95624 2.99854e-05 1
16.5531 -7.58187 -2.97475 2.27535e-05 1
9.13373 -4.11595 -2.83489 0.000401617 1
9.46789 -4.26653 -2.84065 0.000331997 1
9.82118 -4.42573 -2.84553 0.000332835 1
10.1983 -4.59569 -2.85029 0.000259321 1
10.613 -4.78257 -2.8579 0.000199446 1
11.0551 -4.98177 -2.86462 0.000167158 1
11.5369 -5.1989 -2.87276 0.000146079 1
12.08 -5.44364 -2.88626 0.000111536 1
12.3416 -5.56153 -2.82487 0.000172564 2
13.3015 -5.99406 -2.91152 6.67435e-05 1
13.9998 -6.30876 -2.92483 5.91548e-05 1
14.7496 -6.64662 -2.93495 4.33507e-05 1
15.6087 -7.03377 -2.95133 3.18762e-05 1
16.5874 -7.4748 -2.97262 2.22592e-05 1
19.9993 -9.0123 -2.99497 2.69032e-05 2
9.16654 -4.06325 -2.83728 0.000381224 1
9.49508 -4.20888 -2.84101 0.000339473 1
9.86208 -4.37156 -2.84955 0.000332434 1
10.2406 -4.53933 -2.85425 0.00025153 1
10.6414 -4.71702 -2.8577 0.000201548 1
11.0895 -4.91562 -2.86566 0.000173188 1
11.5628 -5.12545 -2.87132 0.000151317 1
12.0934 -5.36062 -2.88153 0.000112732 1
12.6943 -5.62701 -2.89764 9.40205e-05 1
13.3379 -5.91229 -2.9115 7.00882e-05 1
14.0326 -6.22021 -2.92365 6.3707e-05 1
14.7897 -6.55581 -2.93487 4.4077e-05 1
15.649 -6.93674 -2.95086 3.18488e-05 1
16.6385 -7.37535 -2.97362 2.07237e-05 1
5.10545 -2.22571 -1.57601 0.00763863 3
9.51696 -4.1489 -2.83988 0.000360756 1
9.86732 -4.30163 -2.84339 0.000297928 1
10.2557 -4.47095 -2.85077 0.000253218 1
10.683 -4.65721 -2.86112 0.000207568 1
11.1137 -4.845 -2.86419 0.000177785 1
11.6059 -5.05956 -2.87425 0.00015094 1
12.1397 -5.29226 -2.88477 0.000115086 1
12.7118 -5.5417 -2.89382 9.36636e-05 1
5.01983 -2.18839 -1.09281 0.00211246 3
4.91979 -2.14477 -1.02226 0.00663547 3
14.8271 -6.46386 -2.93437 4.46643e-05 1
15.7009 -6.84475 -2.95265 3.45411e-05 1
16.6885 -7.27531 -2.97451 2.01181e-05 1
5.23428 -2.24375 -1.6115 0.00525472 3
5.25932 -2.25449 -1.56524 0.00276916 3
5.23311 -2.24325 -1.50399 0.0036172 3
5.32493 -2.28261 -1.47624 0.0023371 3
5.04068 -2.16076 -1.34643 0.00613445 3
4.8804 -2.09206 -1.25443 0.0022711 3
11.6362 -4.98803 -2.87412 0.000158965 1
12.1731 -5.21817 -2.88505 0.00011083 1
4.98014 -2.13481 -1.13071 0.00155686 3
4.91605 -2.10734 -1.06738 0.00243007 3
4.96155 -2.12684 -1.02821 6.03477e-05 3
5.22879 -2.2414 -1.03207 0.00208417 3
15.7245 -6.74054 -2.94926 3.19304e-05 1
5.32072 -2.28081 -0.945839 0.00553133 3
5.1319 -2.16269 -1.57587 0.00318607 3
5.14049 -2.16631 -1.52589 0.0075308 3
5.00557 -2.10945 -1.43485 0.0056854 3
5.01171 -2.11204 -1.38579 0.00644023 3
5.01601 -2.11385 -1.33635 0.00640345 3
4.91045 -2.06936 -1.25887 0.00213349 3
4.90221 -2.06589 -1.20768 0.00459252 3
4.82486 -2.03329 -1.14052 0.0037449 3
4.87082 -2.05267 -1.10301 0.00896101 3
4.89962 -2.0648 -1.06105 0.00855447 3
5.22315 -2.20114 -1.0796 0.00527889 3
5.1531 -2.17162 -1.01448 0.00330021 3
5.30515 -2.2357 -0.992434 0.00159269 3
5.2943 -2.23113 -0.938691 0.00257624 3
4.92551 -2.04021 -1.50862 0.00848912 3
9.58982 -3.97223 -2.83932 0.000353455 1
5.12692 -2.12364 -1.46587 0.00115653 3
5.01537 -2.07743 -1.38325 0.00229052 3
5.07349 -2.10151 -1.3482 0.00436848 3
4.81592 -1.99482 -1.23147 0.00106743 3
4.93254 -2.04313 -1.21205 0.00491933 3
5.33731 -2.21079 -1.25843 0.0036587 3
5.27834 -2.18636 -1.19224 0.00247351 3
5.02937 -2.08323 -1.08636 0.00240749 3
5.03022 -2.08358 -1.03706 0.00334934 3
5.27409 -2.1846 -1.03564 0.00393397 3
5.32604 -2.20612 -0.993792 0.00154263 3
5.32157 -2.20427 -0.941111 0.00480556 3
16.8346 -6.97311 -2.81362 6.00021e-05 2
5.01577 -2.04163 -1.5324 0.00509793 3
9.60736 -3.91061 -2.83736 0.000338208 1
5.14306 -2.09345 -1.46678 0.00590106 3
5.05501 -2.05761 -1.39068 0.00610123 3
4.82383 -1.96351 -1.27863 0.00817944 3
4.79599 -1.95217 -1.22329 0.000963495 3
4.8342 -1.96773 -1.18489 0.00595848 3
4.8666 -1.98091 -1.14456 0.000854402 3
4.99454 -2.03299 -1.12529 0.00374646 3
4.96869 -2.02247 -1.07055 0.0081007 3
5.0612 -2.06013 -1.04083 0.00428155 3
5.27085 -2.14546 -1.0324 0.00247879 3
4.9918 -2.03188 -0.929082 0.00598435 3
4.99612 -2.03364 -0.881333 0.00211571 3
5.01043 -2.03946 -0.835302 0.00696452 3
4.89087 -1.99079 -0.720957 0.00794715 3
4.98068 -2.02735 -0.686297 0.00461924 3
5.27931 -2.11124 -1.60892 0.00335722 3
5.07566 -2.0298 -1.4953 0.00188214 3
4.85741 -1.94252 -1.38189 0.00420811 3
4.81528 -1.92567 -1.32145 0.00108568 3
4.83323 -1.93285 -1.27795 0.00846506 3
4.9241 -1.96919 -1.25286 0.00108603 3
4.99393 -1.99712 -1.22102 0.00286229 3
4.9732 -1.98882 -1.16674 0.00517368 3
5.04359 -2.01697 -1.13354 0.00301964 3
5.01851 -2.00695 -1.07861 0.00446378 3
5.18112 -2.07197 -1.06285 0.00507772 3
5.24902 -2.09913 -1.02558 0.00855612 3
5.10309 -2.04077 -0.947446 4.05407e-05 3
5.0332 -2.01282 -0.885678 0.00418976 3
5.06086 -2.02388 -0.841624 0.00145248 3
4.84814 -1.93881 -0.759511 0.0082872 3
4.96471 -1.98543 -0.730031 0.00323647 3
4.9074 -1.96251 -0.674529 0.00239636 3
5.01363 -2.00499 -0.641141 0.00582528 3
5.02442 -1.97363 -1.52752 0.00422704 3
4.99574 -1.96237 -1.46818 0.00556172 3
5.07772 -1.99457 -1.44106 0.00230652 3
4.91441 -1.93042 -1.34538 0.00157189 3
4.85214 -1.90596 -1.27984 0.000830903 3
4.90205 -1.92557 -1.24422 0.00146187 3
4.92126 -1.93311 -1.20032 0.00566398 3
4.89179 -1.92154 -1.14485 0.00584893 3
5.09213 -2.00023 -1.14166 0.00199079 3
4.96647 -1.95087 -1.06483 0.00432676 3
5.03781 -1.97889 -1.03094 0.00584546 3
5.07423 -1.9932 -0.98902 0.00386076 3
5.11207 -2.00806 -0.946808 0.00505556 3
5.03289 -1.97696 -0.883472 0.00211806 3
5.04782 -1.98282 -0.837416 0.0048071 3
4.86531 -1.91113 -0.760348 0.00744602 3
4.99542 -1.96224 -0.732763 0.00526225 3
5.02753 -1.97486 -0.689362 0.0024681 3
5.10072 -2.0036 -0.650694 0.00455037 3
4.9595 -1.91309 -1.50419 0.00370339 3
4.88456 -1.88418 -1.43208 0.00519522 3
4.90789 -1.89318 -1.38954 0.00239937 3
4.89435 -1.88796 -1.33669 0.00258895 3
4.89454 -1.88803 -1.28794 0.00510003 3
5.30185 -2.04515 -1.34248 0.00144487 3
5.00941 -1.93234 -1.21891 0.00333307 3
5.01717 -1.93534 -1.17139 0.00380132 3
4.91399 -1.89554 -1.0991 0.00556785 3
4.92947 -1.90151 -1.05438 0.000123656 3
5.0285 -1.93971 -1.02658 0.00435467 3
4.95372 -1.91086 -0.963227 0.00560096 3
15.9294 -6.14466 -2.94325 2.87284e-05 1
5.04041 -1.9443 -0.88268 0.000740317 3
5.07028 -1.95582 -0.839135 0.00466036 3
4.91487 -1.89588 -0.766261 0.00346111 3
5.01291 -1.93369 -0.733574 0.00624532 3
4.93146 -1.90227 -0.674576 0.00283252 3
5.04253 -1.94512 -0.641736 0.00430562 3
4.9848 -1.8878 -1.50832 0.00375415 3
5.02718 -1.90385 -1.47044 0.000710899 3
5.01656 -1.89982 -1.41698 0.00242506 3
4.99566 -1.89191 -1.36116 0.00280052 3
4.90052 -1.85588 -1.28649 0.00239065 3
4.9563 -1.877 -1.25205 0.00486837 3
5.02936 -1.90467 -1.2209 0.00043843 3
5.02159 -1.90173 -1.16968 0.00250482 3
5.08143 -1.92439 -1.13389 3.14335e-05 3
13.5775 -5.14195 -2.89733 7.29339e-05 1
4.9666 -1.8809 -1.01157 0.00553169 3
4.90165 -1.8563 -0.95087 0.00567286 3
4.9074 -1.85848 -0.904609 0.00526717 3
4.9247 -1.86504 -0.860398 0.00127548 3
4.8673 -1.8433 -0.803656 0.00142242 3
4.84877 -1.83628 -0.754185 0.00627576 3
4.8494 -1.83652 -0.707984 0.00628421 3
4.91665 -1.86199 -0.670974 0.00330515 3
4.96468 -1.88018 -0.630349 0.00296911 3
5.0524 -1.87803 -1.52526 0.00377367 3
5.0181 -1.86528 -1.46441 0.00163301 3
4.99168 -1.85546 -1.40671 0.00597026 3
4.96132 -1.84418 -1.3487 0.00170137 3
4.99974 -1.85846 -1.30952 0.00127862 3
4.90674 -1.82389 -1.23668 0.00679635 3
5.03048 -1.86988 -1.21836 0.00227054 3
4.9265 -1.83123 -1.14489 0.00645767 3
5.03056 -1.86991 -1.11995 0.00778467 3
5.07087 -1.8849 -1.07959 0.00684406 3
5.01364 -1.86362 -1.0188 0.00359417 3
4.9174 -1.82785 -0.951731 0.00540334 3
4.9262 -1.83112 -0.905986 0.00364437 3
5.04342 -1.87469 -0.879113 0.00178944 3
5.03121 -1.87015 -0.828808 0.00254515 3
4.99438 -1.85646 -0.775048 0.00193589 3
4.86438 -1.80814 -0.708539 0.00129876 3
4.91066 -1.82534 -0.668615 0.00524448 3
4.74587 -1.76409 -0.601181 0.00920722 3
5.49948 -2.04421 -0.64461 0.00263243 3
4.94242 -1.80271 -1.48869 0.00699317 3
4.9284 -1.7976 -1.43499 0.00205345 3
5.01572 -1.82945 -1.41029 0.00400968 3
4.88929 -1.78333 -1.32612 0.00501495 3
4.99598 -1.82225 -1.30559 0.00285966 3
4.91428 -1.79245 -1.23578 0.00288706 3
4.97533 -1.81472 -1.20229 0.00129991 3
5.17571 -1.8878 -1.20009 0.00496757 3
4.98018 -1.81648 -1.10623 0.00436844 3
5.14524 -1.87669 -1.09295 0.00650801 3
5.01381 -1.82875 -1.01654 0.00466603 3
4.99544 -1.82205 -0.964655 0.00572656 3
4.81248 -1.75532 -0.883075 0.000630241 3
4.91219 -1.79169 -0.854307 0.00218111 3
4.84969 -1.76889 -0.797103 0.00885398 3
4.98425 -1.81797 -0.771729 0.0072611 3
4.84441 -1.76696 -0.704038 0.00189949 3
4.75737 -1.73522 -0.646283 0.00739455 3
4.76591 -1.73833 -0.557366 0.00352025 3
4.8355 -1.76371 -0.519943 0.00777257 3
5.56815 -2.03094 -0.546351 2.34843e-05 3
5.00779 -1.79182 -1.50504 0.000911118 3
5.01328 -1.79378 -1.45647 0.00314944 3
4.91765 -1.75956 -1.37966 0.00437183 3
5.08813 -1.82056 -1.37699 0.00208802 3
5.1175 -1.83107 -1.33438 0.0042492 3
5.02302 -1.79727 -1.26033 0.00171733 3
5.05986 -1.81045 -1.22 0.00278153 3
5.04711 -1.80589 -1.16768 0.00347498 3
5.02426 -1.79771 -1.11355 0.00105538 3
5.21943 -1.86754 -1.10626 0.00128446 3
5.11462 -1.83004 -1.03468 0.000354582 3
4.78007 -1.71034 -0.921021 0.00826627 3
4.80659 -1.71983 -0.88004 0.000514262 3
4.93136 -1.76447 -0.855741 0.00202626 3
4.93444 -1.76557 -0.809236 0.00451522 3
5.00937 -1.79238 -0.773901 0.00751574 3
4.75379 -1.70093 -0.689337 0.00604802 3
4.79601 -1.71604 -0.650089 0.00430253 3
4.80463 -1.71912 -0.605906 0.00302762 3
4.75169 -1.70018 -0.554472 0.00514179 3
4.77006 -1.70676 -0.511771 0.00423053 3
5.22608 -1.86992 -0.511651 0.00411 3
5.52971 -1.97856 -0.489567 0.00126452 3
5.29759 -1.89551 -0.221768 0.00141318 3
5.33285 -1.90812 -0.12398 0.00129369 3
5.00711 -1.75699 -1.50157 0.00329923 3
4.94058 -1.73365 -1.43223 0.00597815 3
4.91951 -1.72625 -1.37718 0.00279862 3
5.03356 -1.76627 -1.35926 0.00421157 3
5.12697 -1.79905 -1.33394 0.00175785 3
5.01775 -1.76073 -1.25627 0.00116535 3
5.01216 -1.75876 -1.20588 0.00180885 3
5.10755 -1.79224 -1.1791 0.00402897 3
5.32781 -1.86953 -1.17827 0.00123919 3
5.04186 -1.76919 -1.0663 0.00297641 3
5.03578 -1.76705 -1.01652 0.00435182 3
4.88233 -1.71321 -0.93868 0.000254936 3
4.82003 -1.69135 -0.880585 0.000740217 3
4.93564 -1.73191 -0.854624 0.00875466 3
4.96126 -1.7409 -0.811869 0.00524317 3
5.24727 -1.84126 -0.808894 0.0013808 3
4.76121 -1.67071 -0.688915 0.00256143 3
4.76925 -1.67353 -0.645058 0.00231225 3
4.72705 -1.65872 -0.594828 0.00691098 3
5.42597 -1.90397 -0.631779 0.00436114 3
5.46234 -1.91673 -0.584771 0.00467612 3
4.92491 -1.72815 -0.481119 0.00694468 3
4.88601 -1.7145 -0.431638 0.0100915 3
5.20301 -1.82573 -0.36256 0.00459742 3
5.24482 -1.8404 -0.267836 0.0027468 3
5.24271 -1.83966 -0.170294 0.00407637 3
5.22864 -1.83473 -0.0727685 0.00596864 3
4.94728 -1.70197 -1.48046 0.00420466 3
5.02664 -1.72928 -1.45408 0.00410036 3
10.1548 -3.49346 -2.83669 0.000299676 1
5.0827 -1.74856 -1.36961 0.00421489 3
5.24945 -1.80593 -1.3629 0.00432297 3
5.14879 -1.7713 -1.28634 0.0012416 3
5.13174 -1.76543 -1.23202 0.00113614 3
5.3099 -1.82673 -1.2232 0.00243332 3
5.13717 -1.7673 -1.13369 0.00117302 3
4.8857 -1.68079 -1.03108 0.00217084 3
4.8473 -1.66758 -0.976388 0.00146489 3
4.9669 -1.70873 -0.952907 0.00731029 3
4.91792 -1.69187 -0.896554 0.0024814 3
5.03342 -1.73161 -0.869698 0.00120369 3
4.82283 -1.65916 -0.787535 0.0056291 3
4.80173 -1.6519 -0.738635 0.00844444 3
4.7857 -1.64639 -0.690982 0.00204637 3
4.82758 -1.6608 -0.651557 0.00162014 3
4.79558 -1.64979 -0.602166 0.00381815 3
4.78115 -1.64482 -0.555512 0.00485649 3
4.8001 -1.65134 -0.512781 0.00113246 3
5.16284 -1.77613 -0.503288 0.00831296 3
5.16414 -1.77658 -0.455237 0.00347832 3
5.14279 -1.76924 -0.405447 0.00625988 3
5.29975 -1.82323 -0.319265 0.00234898 3
5.30603 -1.82539 -0.221167 0.00182325 3
5.23769 -1.80189 -0.169768 0.00213166 3
5.28787 -1.81915 -0.122406 0.00338093 3
5.28985 -1.81983 -0.0244865 0.00448656 3
5.33923 -1.83682 0.0247153 0.000233679 3
